# .PCD v0.7 - Point Cloud Data file format
VERSION 0.7
FIELDS x y z
SIZE 4 4 4
TYPE F F F
COUNT 1 1 1
WIDTH 1466
HEIGHT 1
VIEWPOINT 0 0 0 1 0 0 0
POINTS 1466
DATA ascii
0.15731999 -0.43996 -1.6373
0.20810001 -0.43893 -1.6397001
0.22341999 -0.43866 -1.6387
0.23332 -0.43865001 -1.6387
0.24731 -0.43996 -1.6373
0.58858001 -0.43871999 -1.6389
0.59423751 -0.43829247 -1.6389501
0.63714999 -0.43015999 -1.6398
0.64300001 -0.43134999 -1.6377665
0.65057999 -0.43184 -1.6396
0.70398498 -0.438835 -1.6362
0.80637997 -0.43968999 -1.6363
-0.83894002 -0.42813998 -1.6354001
0.62918001 -0.42373502 -1.6385
0.63539153 -0.42394495 -1.6355287
0.64226568 -0.42603859 -1.6334858
0.62601429 -0.41490287 -1.6374356
0.63332927 -0.41528934 -1.6324267
0.64182001 -0.41914999 -1.6312
0.65206999 -0.41768 -1.6322
0.61818624 -0.40361002 -1.6383375
0.62482244 -0.40495476 -1.6353811
0.63179398 -0.40673 -1.6326602
0.61875504 -0.39547166 -1.6382834
0.62342423 -0.3934657 -1.6334144
0.63233668 -0.39268669 -1.6327667
0.62528998 -0.38734081 -1.6353917
0.63442433 -0.38513002 -1.6348572
0.64115667 -0.38355336 -1.6338334
0.641904 -0.37715998 -1.6345799
0.70869499 -0.37351501 -1.63135
0.71596003 -0.37142333 -1.6348834
0.66907001 -0.36090001 -1.6325999
0.67639405 -0.36080003 -1.63526
0.68114001 -0.36011001 -1.6368001
0.70902663 -0.36610666 -1.6303333
0.71548998 -0.36431125 -1.6325126
0.72446752 -0.36495754 -1.6366916
0.73071003 -0.36250001 -1.6398
0.66772997 -0.35868001 -1.6303
0.67542583 -0.35443246 -1.6350166
0.68460226 -0.35715333 -1.6346444
0.69320661 -0.35571334 -1.6349334
0.70677996 -0.35142335 -1.6336333
0.71510667 -0.35507333 -1.6320555
0.72504425 -0.35508075 -1.6367499
0.73354995 -0.35377002 -1.6392
0.71607757 -0.34847751 -1.634625
0.72469878 -0.34758124 -1.63735
0.73220503 -0.34776998 -1.6393
0.88757664 -0.15202667 -1.6359
0.89300489 -0.15353143 -1.6335286
0.90056002 -0.155625 -1.63055
0.88640636 -0.14605092 -1.6374363
0.89340669 -0.1461025 -1.6338834
0.90000999 -0.14733 -1.6305
0.88538235 -0.13404647 -1.6352352
0.89155 -0.13113999 -1.6333001
0.878075 -0.120775 -1.6363499
0.8849116 -0.12534 -1.6355082
0.89051998 -0.12797499 -1.63485
0.87875003 -0.11722 -1.6359001
0.88320225 -0.11463222 -1.6328999
0.88034999 -0.1091 -1.6321
0.88332671 0.098269671 -1.6315999
0.80430806 0.108982 -1.63148
0.81471997 0.10965333 -1.6321334
0.82620507 0.10838833 -1.6324167
0.83631331 0.10707334 -1.6312833
0.84654796 0.107392 -1.63468
0.85540241 0.107365 -1.6350626
0.86457002 0.1064425 -1.6358
0.87596005 0.10386 -1.6333333
0.88158673 0.10225 -1.6325001
0.77553499 0.117945 -1.6310501
0.78327751 0.11725 -1.6324
0.7955783 0.11684916 -1.6343249
0.80429602 0.116264 -1.6345001
0.81523502 0.114295 -1.6370749
0.82568997 0.11007 -1.6382999
0.83506995 0.1139289 -1.6382445
0.84501666 0.11348334 -1.6370333
0.85541403 0.112098 -1.6368001
0.86381495 0.1127025 -1.6377751
0.73914999 0.127205 -1.6333499
0.74487627 0.12713125 -1.6328626
0.75428712 0.12564144 -1.6332713
0.76480377 0.12457251 -1.6346625
0.77230668 0.12297666 -1.6331668
0.78214002 0.121755 -1.6391499
0.79479671 0.12225667 -1.6385832
0.80164999 0.12012 -1.6393
0.74530256 0.131935 -1.63785
0.75238001 0.13155 -1.6382
0.84779 0.29679999 -1.6393
0.84937 0.30719 -1.64
0.84779 0.31312001 -1.6363
0.85042 0.3188 -1.6395
0.81621599 0.32658398 -1.6369998
0.82100999 0.32582501 -1.6379
0.83750993 0.32525334 -1.6371666
0.84324503 0.32629001 -1.63835
0.85042 0.3222 -1.63885
0.81674999 0.331635 -1.6387501
0.82075 0.33032 -1.6366
0.83477861 0.33548427 -1.6381
0.84541577 0.33550143 -1.6352857
0.85298795 0.33322796 -1.6323601
0.81893665 0.34285998 -1.6370667
0.82475746 0.34527266 -1.6365865
0.83520848 0.34513155 -1.6361463
0.84465992 0.34436002 -1.6336924
0.85548496 0.34185499 -1.631
0.81849003 0.35889 -1.6391001
0.82644588 0.35721251 -1.6359667
0.83524549 0.35523817 -1.6340001
0.84388 0.35303301 -1.6332201
0.81746 0.36675501 -1.63555
0.82623714 0.36658713 -1.6355286
0.83403361 0.36547548 -1.6358727
0.8414343 0.36534429 -1.6331999
0.85095 0.36480999 -1.6307
-0.72489333 0.37850666 -1.6373667
-0.71583337 0.37868333 -1.6381334
-0.69370747 0.3762975 -1.6336
-0.68468326 0.376845 -1.6340166
-0.67508572 0.37687287 -1.6346858
-0.66804332 0.37785664 -1.6371001
-0.65256 0.37769333 -1.6364001
-0.64503002 0.37708998 -1.635643
-0.63487571 0.37772861 -1.6373001
-0.62573999 0.37792599 -1.63794
-0.61531371 0.37610376 -1.6337876
-0.60558635 0.37621909 -1.6345454
-0.59522402 0.37746802 -1.63596
-0.58532 0.37710857 -1.6357143
-0.57484287 0.37738425 -1.6358001
-0.56490505 0.37603 -1.6344299
-0.55501556 0.37642336 -1.6343999
-0.54414284 0.37642145 -1.6338857
-0.53501141 0.37666431 -1.6337572
-0.5243367 0.37684 -1.6353222
-0.51544857 0.37586141 -1.6348571
-0.4938525 0.3769275 -1.6363
-0.48483834 0.37531671 -1.6339
-0.47420603 0.37734398 -1.63696
-0.46484333 0.37659666 -1.6351779
-0.455587 0.375938 -1.63405
-0.44522604 0.37628901 -1.6355801
-0.435103 0.37584001 -1.63442
-0.4250257 0.37496573 -1.6331856
-0.41510144 0.37620142 -1.6351858
-0.40451503 0.37622198 -1.6352701
-0.39470574 0.3753686 -1.6349286
-0.386085 0.3760525 -1.636475
-0.37422165 0.37724331 -1.6370498
-0.36461502 0.37646598 -1.63556
-0.35597503 0.37557128 -1.6344125
-0.34367856 0.37574571 -1.6343
-0.33551887 0.37596002 -1.6359111
-0.32445401 0.37554097 -1.6338999
-0.31574574 0.37614283 -1.6360285
-0.30510715 0.37459713 -1.6327429
-0.29511416 0.37612832 -1.6348833
-0.28534889 0.37605777 -1.6354444
-0.27537286 0.37491855 -1.6341428
-0.26517999 0.375195 -1.63475
-0.25470248 0.37567997 -1.6348749
-0.2461925 0.37555251 -1.6343751
-0.12346143 0.37479854 -1.6347144
-0.11490667 0.37479779 -1.6343111
-0.1057575 0.37526 -1.635025
-0.095708489 0.37504002 -1.6340625
-0.084609903 0.37629271 -1.636309
-0.074793398 0.37592098 -1.6355702
-0.065555751 0.37480751 -1.6351001
-0.054899145 0.37534571 -1.6359857
-0.044892445 0.37571442 -1.6356889
-0.034669288 0.37480858 -1.633643
-0.025292287 0.37592858 -1.6373714
-0.015064778 0.37562218 -1.6352888
-0.0044263001 0.37545127 -1.6358875
0.0049609169 0.37533167 -1.6353335
0.015293166 0.37505999 -1.6355166
0.025149126 0.37527001 -1.635075
0.035226628 0.37474 -1.634725
0.044986997 0.37565997 -1.6354165
0.054914251 0.37537751 -1.6355375
0.065213434 0.37535286 -1.6360142
0.073997997 0.37589833 -1.6364666
0.085452996 0.376185 -1.6366901
0.094426289 0.37577718 -1.6367571
0.105754 0.37526399 -1.6358601
0.11508221 0.37494001 -1.6349444
0.1252325 0.37480873 -1.6350126
0.13513167 0.37520167 -1.6348001
0.14483 0.37533873 -1.6353874
0.154745 0.37481833 -1.6344666
0.16617285 0.37486002 -1.6349715
0.17520502 0.37541997 -1.6357374
0.18561144 0.37520286 -1.6353573
0.19501285 0.37531999 -1.6347286
0.203944 0.37542599 -1.6365801
0.21398002 0.37518114 -1.6360111
0.22418666 0.37495503 -1.6350666
0.23396599 0.37653598 -1.63816
0.24502501 0.37552124 -1.6361625
0.25536999 0.37507433 -1.6348287
0.26574779 0.37492552 -1.6357332
0.27511749 0.37481999 -1.6350875
0.28552717 0.37588426 -1.6371715
0.29359248 0.37522751 -1.6349001
0.30345201 0.37456802 -1.6328399
0.31484249 0.37356749 -1.6317
0.32492 0.37358999 -1.6317999
0.33401999 0.37395 -1.6334
0.34268332 0.37394667 -1.6333666
0.35653332 0.37504169 -1.63415
0.36606336 0.37556502 -1.6350168
0.37394002 0.374506 -1.6325802
0.38187501 0.37380999 -1.6328001
0.40790498 0.37724 -1.6396
0.414334 0.37544 -1.635
0.81714499 0.37471002 -1.6363499
0.8250829 0.37506714 -1.6347215
0.83658546 0.37506369 -1.6346363
0.84828001 0.37163001 -1.6309
-0.68507338 0.38040003 -1.6383667
-0.67922002 0.38058001 -1.6391
-0.64718997 0.380595 -1.63915
0.82547551 0.38253221 -1.6346444
0.8343944 0.38646778 -1.6329668
0.84293002 0.38705999 -1.6307
0.81893498 0.395255 -1.6346
0.82581371 0.39376187 -1.6342688
0.8310234 0.39525333 -1.6313667
0.82713252 0.40744001 -1.6331999
0.83276498 0.40152001 -1.63175
0.82848001 0.41215998 -1.63115
-0.36443001 -0.45107001 -1.6204
-0.18312 -0.45096999 -1.6201
-0.14142999 -0.45131499 -1.6213
-0.072858334 -0.45103002 -1.6202666
-0.067483 -0.45100999 -1.6202
-0.021575 -0.45192999 -1.6235
-0.0122315 -0.451395 -1.6215999
-0.0049286396 -0.45081797 -1.6220402
0.0040665502 -0.45098251 -1.623275
0.016252 -0.45021001 -1.6237
0.045981199 -0.45090398 -1.62236
0.051226001 -0.45105001 -1.6203001
0.063470997 -0.451125 -1.6206501
0.077298 -0.45166999 -1.62255
0.085429005 -0.45073 -1.622375
0.094233006 -0.45099002 -1.6217
0.10314333 -0.45145667 -1.6217999
0.11544 -0.451395 -1.6215999
0.12502335 -0.45082664 -1.6216666
0.13546124 -0.451395 -1.6223999
0.14620145 -0.45198289 -1.6210144
0.154625 -0.45136753 -1.6215249
0.16593201 -0.45121998 -1.6222401
0.17523399 -0.45122004 -1.6247599
0.18505 -0.45127106 -1.6225778
0.19602801 -0.45068803 -1.62286
0.20337142 -0.45145711 -1.621857
0.21382801 -0.45252603 -1.6219
0.22492623 -0.45246375 -1.6230875
0.23522 -0.45096603 -1.6225799
0.24518716 -0.45274714 -1.6219712
0.25378001 -0.45157498 -1.62305
0.264965 -0.45118669 -1.6240333
0.27560583 -0.45210084 -1.6236167
0.28427249 -0.45207751 -1.6240499
0.29449573 -0.45125288 -1.6246998
0.30496857 -0.45197853 -1.6237143
0.31309626 -0.45162252 -1.6231999
0.32811001 -0.45039001 -1.6243
0.33491603 -0.45192105 -1.62225
0.34491402 -0.45240003 -1.6214201
0.35552907 -0.45212001 -1.6224998
0.36525083 -0.45257255 -1.6227001
0.3747867 -0.45244411 -1.6243333
0.384018 -0.45162001 -1.62306
0.39541885 -0.45190778 -1.6234667
0.40519363 -0.45179728 -1.6236364
0.41621113 -0.45231003 -1.624189
0.42428201 -0.45240903 -1.6239898
0.43552229 -0.45204151 -1.6229689
0.447045 -0.45139 -1.62265
0.45555401 -0.45230299 -1.6236101
0.46480748 -0.45246914 -1.6239082
0.47535428 -0.45265144 -1.6234214
0.48586002 -0.45280996 -1.6246001
0.49126664 -0.45252001 -1.6235666
0.57713997 -0.45111001 -1.62375
0.58517605 -0.452447 -1.6241299
0.595406 -0.45219302 -1.62321
0.60526001 -0.45384377 -1.6217376
0.6149807 -0.45246288 -1.6231998
0.6257875 -0.45170376 -1.6235125
0.63547802 -0.45231399 -1.6236598
0.64499217 -0.45265996 -1.6219444
0.65592885 -0.45264885 -1.624022
0.66488498 -0.45302999 -1.6222416
0.67508554 -0.45217445 -1.6237111
0.68535 -0.45186305 -1.62393
0.69630671 -0.45283499 -1.62155
0.7049244 -0.45180666 -1.6223667
0.71663839 -0.451695 -1.6237332
0.72516572 -0.45345002 -1.6244856
0.73503572 -0.45306641 -1.6235715
0.74534327 -0.45322666 -1.6240168
0.75474316 -0.45350462 -1.6224307
0.76542091 -0.45312998 -1.6238182
0.77563077 -0.45255747 -1.6231583
0.78572917 -0.45349333 -1.6218082
0.79487252 -0.45237127 -1.6235499
0.80378503 -0.45253497 -1.6241376
0.81620902 -0.45254096 -1.6250999
0.8251878 -0.45314333 -1.6222888
0.83219999 -0.45282 -1.6204
-1.02205 -0.44203001 -1.62235
-1.0151201 -0.44249901 -1.62414
-1.0045 -0.44231084 -1.6234751
-0.99505448 -0.44211107 -1.6237888
-0.98833996 -0.44125667 -1.6227335
-0.81461275 -0.44169185 -1.6237727
-0.80551779 -0.44314539 -1.6257848
-0.79445845 -0.44323459 -1.6256461
-0.78491271 -0.44350201 -1.62468
-0.77484262 -0.44385201 -1.6251333
-0.76465505 -0.44287667 -1.6255417
-0.75441998 -0.44392067 -1.6253144
-0.74485689 -0.4438892 -1.6241229
-0.73558927 -0.44442332 -1.6254801
-0.72569263 -0.4444207 -1.6238002
-0.71572697 -0.44303998 -1.62486
-0.70601004 -0.44352499 -1.6252667
-0.69592905 -0.44270363 -1.6269091
-0.68390614 -0.44318387 -1.6264154
-0.67538267 -0.44333455 -1.6257637
-0.66466063 -0.44316503 -1.6238375
-0.65482086 -0.4427425 -1.6250416
-0.64469665 -0.4424783 -1.6251249
-0.63497287 -0.44297355 -1.6250001
-0.62485993 -0.44338304 -1.6242152
-0.61532617 -0.44313848 -1.6247846
-0.60499793 -0.44340798 -1.62516
-0.59447867 -0.44260329 -1.6234868
-0.58555359 -0.44364789 -1.6238285
-0.57527125 -0.44416749 -1.6243314
-0.56559211 -0.44302073 -1.6256285
-0.55505532 -0.44333237 -1.6247824
-0.5449307 -0.44338852 -1.6242214
-0.5351758 -0.44384411 -1.6247941
-0.52496684 -0.444015 -1.6241688
-0.51539385 -0.44412723 -1.6251833
-0.50526851 -0.44434771 -1.6258076
-0.49502534 -0.44329661 -1.62602
-0.48559922 -0.44376537 -1.6241691
-0.47536314 -0.44369563 -1.6249688
-0.46502811 -0.44479749 -1.6238686
-0.45474046 -0.44460648 -1.62553
-0.44540688 -0.44446751 -1.6250374
-0.43498799 -0.44322464 -1.6257534
-0.4250192 -0.44362387 -1.6256076
-0.41585794 -0.44355801 -1.6257068
-0.40459836 -0.4428525 -1.6254584
-0.39427885 -0.44444412 -1.6232648
-0.38483599 -0.44480148 -1.625275
-0.37532899 -0.44518 -1.6241348
-0.36469474 -0.44427946 -1.6251631
-0.355266 -0.44405735 -1.6266935
-0.34524751 -0.44519702 -1.6248353
-0.33493546 -0.44437274 -1.6255455
-0.32496142 -0.44558287 -1.6241571
-0.31492296 -0.44619817 -1.6241
-0.3042635 -0.44489503 -1.624995
-0.2947925 -0.44493347 -1.624815
-0.28542501 -0.44516006 -1.6258346
-0.2745541 -0.44607943 -1.6243942
-0.26533055 -0.4468458 -1.6241841
-0.25533 -0.44518822 -1.6253002
-0.24430525 -0.44597319 -1.6246895
-0.23529467 -0.44546333 -1.6250666
-0.22451118 -0.44574296 -1.624653
-0.21443398 -0.44541749 -1.6253198
-0.20500636 -0.44603184 -1.6258727
-0.19543751 -0.44600001 -1.624325
-0.18488054 -0.4468179 -1.6247684
-0.17518668 -0.44604084 -1.6244668
-0.16624664 -0.44589081 -1.6257252
-0.1550447 -0.44586113 -1.6247176
-0.14463945 -0.4470678 -1.6246611
-0.13475454 -0.44592631 -1.6248819
-0.12525684 -0.44638905 -1.624879
-0.11476842 -0.44550529 -1.6253262
-0.10512461 -0.44647843 -1.624346
-0.095939286 -0.44625121 -1.6243001
-0.085086867 -0.44565001 -1.6265752
-0.074766271 -0.4464044 -1.6240166
-0.064340852 -0.44663998 -1.6247998
-0.055765327 -0.44630688 -1.6258947
-0.044326212 -0.44660211 -1.6246856
-0.035013396 -0.44630063 -1.6264335
-0.025378421 -0.44703999 -1.6255684
-0.015078881 -0.44752294 -1.6244413
-0.0045369738 -0.44685751 -1.6246562
0.0050733434 -0.44631079 -1.6257001
0.015379599 -0.447586 -1.6247802
0.025459222 -0.44739613 -1.6248112
0.035492647 -0.44672123 -1.6259763
0.044357266 -0.44673899 -1.6261524
0.055610854 -0.44700056 -1.6247652
0.065355927 -0.44752538 -1.6247309
0.074920781 -0.44678614 -1.6257558
0.085699409 -0.448551 -1.6253401
0.095653176 -0.44736585 -1.625042
0.104665 -0.44800416 -1.6257666
0.11535612 -0.44740444 -1.6255279
0.12470399 -0.44836998 -1.6259501
0.13627072 -0.44748572 -1.627
0.14417817 -0.44759092 -1.6251817
0.15468252 -0.44753063 -1.6251187
0.16474693 -0.44787848 -1.6255385
0.17519857 -0.44806144 -1.6277572
0.18489638 -0.44788453 -1.6274456
0.19590332 -0.44799444 -1.6270112
0.20532334 -0.44758251 -1.6263748
0.21507443 -0.4486911 -1.6245555
0.22468454 -0.4485282 -1.6263183
0.23384167 -0.44795415 -1.6272001
0.24532001 -0.44897249 -1.6272001
0.25482899 -0.44816899 -1.6264999
0.26498801 -0.448744 -1.6273201
0.27458429 -0.44807714 -1.6278
0.28490248 -0.44845751 -1.6277125
0.29446334 -0.4481011 -1.6288
0.30379114 -0.4487389 -1.6275667
0.31540856 -0.44903284 -1.6267143
0.32420555 -0.44879219 -1.6270666
0.33609834 -0.44916999 -1.6273836
0.34455404 -0.44885001 -1.6264101
0.35511002 -0.44865167 -1.6276499
0.36436665 -0.44820887 -1.6270555
0.37451747 -0.44851002 -1.6287
0.38485 -0.44890332 -1.6285501
0.39352 -0.448874 -1.6277802
0.40377998 -0.44864431 -1.6280286
0.41559753 -0.44847625 -1.6269876
0.42635 -0.44867501 -1.6277
0.43569168 -0.44890332 -1.6285334
0.44400501 -0.44954997 -1.626075
0.45511499 -0.44869003 -1.6277667
0.46532625 -0.447815 -1.6277751
0.47415 -0.44755748 -1.6268375
0.48527399 -0.44939604 -1.62712
0.49386856 -0.44847998 -1.6265428
0.57776999 -0.44622335 -1.6240667
0.5842725 -0.44773498 -1.628225
0.59371996 -0.44908503 -1.6292
0.60518378 -0.44852749 -1.6239874
0.61611807 -0.44817001 -1.62778
0.62639832 -0.44874501 -1.6269001
0.63455802 -0.44781598 -1.6265199
0.64624375 -0.44858876 -1.625775
0.65481877 -0.44776499 -1.6283375
0.66366857 -0.44823429 -1.6274716
0.67694998 -0.44865599 -1.6270001
0.68488252 -0.44822249 -1.626075
0.69434369 -0.44911873 -1.626925
0.70496339 -0.44807667 -1.6273111
0.71433663 -0.44844499 -1.6268835
0.72509003 -0.44812497 -1.6250499
0.73592794 -0.44707999 -1.6288601
0.74322999 -0.44738001 -1.6293499
0.75393999 -0.44891801 -1.6267
0.76425505 -0.4489775 -1.6287999
0.77522749 -0.44871497 -1.6278499
0.78437501 -0.44963253 -1.6264
0.79511666 -0.44839832 -1.6267166
0.8053267 -0.44894335 -1.6276001
0.810525 -0.44883502 -1.62825
-1.0159 -0.43845001 -1.6295667
-1.00605 -0.43811166 -1.6272835
-0.99537599 -0.43770799 -1.62644
-0.98873001 -0.43761 -1.6223
-0.82331997 -0.43937498 -1.627175
-0.81407332 -0.43929002 -1.6285334
-0.80586499 -0.43927503 -1.62845
-0.79321504 -0.43948501 -1.62925
-0.78349501 -0.439475 -1.6292
-0.77526999 -0.43938002 -1.6288667
-0.76659501 -0.43899 -1.6274
-0.69854003 -0.43895337 -1.6293668
-0.67149001 -0.43928 -1.6285
-0.66483337 -0.43890333 -1.6270666
-0.65662998 -0.43959001 -1.6296
-0.63518339 -0.43945333 -1.6291
-0.62331003 -0.43959999 -1.6297001
-0.61329997 -0.43966502 -1.6266
-0.59333998 -0.43957502 -1.6296
-0.58449 -0.43963 -1.6298
-0.56518 -0.43954501 -1.6294999
-0.55162001 -0.43924001 -1.6283
-0.54622 -0.43965 -1.6299
-0.52247 -0.43924001 -1.6283
-0.51815999 -0.439275 -1.62845
-0.46483001 -0.43906 -1.6277
-0.45809001 -0.438685 -1.6294
-0.42285001 -0.43965 -1.6298
0.63783997 -0.42216 -1.6289999
0.64512873 -0.42247751 -1.6285876
0.63753247 -0.4137325 -1.6287251
0.64417064 -0.41425374 -1.6268876
0.65398139 -0.41248712 -1.6255286
0.66104501 -0.41140503 -1.6247
0.63552314 -0.40478259 -1.6265262
0.64461577 -0.40463734 -1.6233841
0.65459317 -0.40522772 -1.6218383
0.66398144 -0.40534711 -1.6224285
0.62587112 -0.39675224 -1.6284111
0.63580936 -0.39498115 -1.627089
0.64444524 -0.39540577 -1.6234578
0.65417498 -0.39403832 -1.6216
0.66491336 -0.39629999 -1.6226667
0.63718498 -0.38673753 -1.6283875
0.64428258 -0.38580561 -1.6240374
0.67973 -0.38411 -1.6217
0.68461996 -0.38165998 -1.6209
0.69165331 -0.38120666 -1.6238333
0.64369529 -0.37510118 -1.6240412
0.68742996 -0.37411499 -1.6215668
0.69487184 -0.37430638 -1.6243182
0.70341575 -0.37361431 -1.6281286
0.64674503 -0.365583 -1.6244301
0.65086001 -0.36524001 -1.6214
0.66521204 -0.36187202 -1.62312
0.6736533 -0.36162665 -1.6281333
0.68599147 -0.36543283 -1.6222714
0.69483936 -0.36447689 -1.6236812
0.70415133 -0.36498126 -1.6269
0.71193004 -0.36140001 -1.6271
0.64998001 -0.35837001 -1.6210999
0.65262997 -0.35644999 -1.6202
0.67791998 -0.35896999 -1.6238
0.68540144 -0.35868999 -1.6226
0.69528288 -0.35594362 -1.6256359
0.70538688 -0.35549924 -1.627131
0.71252996 -0.35328665 -1.6289667
0.89679337 -0.15240999 -1.6289333
0.90426683 -0.15496874 -1.6266
0.91069996 -0.15665501 -1.6229999
0.89418644 -0.14310183 -1.6246727
0.90388674 -0.14608584 -1.6241499
0.91445506 -0.14399751 -1.6213
0.88516712 -0.13843285 -1.6258286
0.89508992 -0.13581789 -1.6264473
0.90456378 -0.13784625 -1.6219
0.91598672 -0.13760667 -1.6213335
0.88749224 -0.12395692 -1.6252924
0.892721 -0.124624 -1.6225399
0.87870997 -0.11863 -1.6289001
0.88484401 -0.114975 -1.6271598
0.89130992 -0.11838599 -1.6253799
0.88687998 0.089543998 -1.6206
0.92135 0.087980002 -1.6215
0.81832999 0.099280998 -1.6212
0.82630998 0.099361993 -1.6225001
0.83921999 0.099565998 -1.6258
0.84493333 0.099417001 -1.6234001
0.85747749 0.0968685 -1.6217749
0.865125 0.096574366 -1.6237
0.874075 0.095583878 -1.624025
0.88532418 0.096773088 -1.6224667
0.89643669 0.096562661 -1.6214
0.90158999 0.098707005 -1.62525
0.91569501 0.092072003 -1.622725
0.92321503 0.093585499 -1.62115
0.77519006 0.10918333 -1.6251
0.78453499 0.1082775 -1.623225
0.79602402 0.107426 -1.6260399
0.80518508 0.10457 -1.6216501
0.81480366 0.10513455 -1.6251
0.82531625 0.10411375 -1.624925
0.83517379 0.10514376 -1.6262376
0.84329003 0.10257401 -1.62518
0.85402 0.1021075 -1.626025
0.86506999 0.10344 -1.6260287
0.87303501 0.10371 -1.6241
0.88363004 0.10211501 -1.6262
0.89107329 0.10227666 -1.6242666
0.74491 0.11825 -1.6244501
0.75588751 0.1188275 -1.627075
0.76483732 0.11595818 -1.6236908
0.77469599 0.11360999 -1.6245701
0.78472996 0.11274334 -1.6262165
0.79497802 0.111904 -1.6287401
0.803285 0.111155 -1.6278501
0.73995 0.12389 -1.6228
0.74714601 0.123744 -1.6258399
0.75541604 0.123594 -1.6283
0.765755 0.122635 -1.62885
0.74338001 0.13076 -1.6284
0.83932 0.34055001 -1.6289001
0.84354502 0.34323502 -1.6293
0.85507452 0.34499276 -1.6269271
0.86000001 0.34173 -1.6263
0.82874 0.35363999 -1.6267
0.83454007 0.35614002 -1.6278
0.84632874 0.35510623 -1.6275249
0.8536278 0.35494775 -1.6265111
0.86000001 0.35628 -1.6232001
-0.73302001 0.36825669 -1.6210667
-0.72201002 0.36927 -1.6205499
-0.67215002 0.36970001 -1.6224
-0.66745996 0.36961001 -1.6221
-0.65434998 0.36990333 -1.6233333
-0.63248998 0.36774999 -1.6213
-0.62502253 0.3694225 -1.6231
-0.61360002 0.36963999 -1.6222
-0.60540503 0.36862502 -1.6214666
-0.59412664 0.36944333 -1.6213332
-0.58575332 0.36973667 -1.6226001
-0.57496005 0.36922398 -1.6218799
-0.54806 0.36984 -1.6231
-0.53841001 0.36746001 -1.6201
-0.52697998 0.36750001 -1.6202
-0.51299667 0.3682833 -1.6212
-0.5060125 0.36866498 -1.62165
-0.4947525 0.36835247 -1.6221499
-0.48386249 0.36811501 -1.6211001
-0.47585833 0.36898997 -1.6218334
-0.46348 0.36774501 -1.62135
-0.45565334 0.36785331 -1.6218333
-0.44498751 0.36854249 -1.622975
-0.43548 0.36770499 -1.6212001
-0.42443499 0.36778501 -1.621525
-0.41510665 0.36981001 -1.6229
-0.40503749 0.36777753 -1.6215
-0.39422253 0.36803001 -1.6226
-0.38357666 0.36846003 -1.6219667
-0.37555751 0.36872 -1.621875
-0.36510333 0.36769 -1.6210999
-0.35557249 0.367735 -1.6213
-0.3449125 0.36807251 -1.6228001
-0.33524999 0.36789331 -1.6220332
-0.3258175 0.36800748 -1.622475
-0.3149775 0.368025 -1.62255
-0.30434501 0.36835498 -1.624025
-0.29475331 0.36813 -1.6230665
-0.28399333 0.36820999 -1.6234001
-0.27469251 0.36845499 -1.624475
-0.26229 0.36787999 -1.6219
-0.25564751 0.36803001 -1.622625
-0.24487999 0.36793748 -1.622175
-0.23810001 0.36774999 -1.6214
-0.12227499 0.36719 -1.622575
-0.1143375 0.36845249 -1.62445
-0.10501334 0.3679333 -1.6222
-0.095717996 0.36831 -1.6238
-0.084309995 0.36740202 -1.62132
-0.074437 0.36849001 -1.624625
-0.065166667 0.3680867 -1.6228666
-0.055832997 0.36835 -1.624
-0.045187503 0.36833 -1.62395
-0.034514252 0.36846501 -1.6245251
-0.025178999 0.36852667 -1.6248001
-0.015920751 0.3682175 -1.623425
-0.004749157 0.36729145 -1.6225144
0.0045922203 0.367816 -1.6231201
0.014837332 0.36843333 -1.6243668
0.025052331 0.36780334 -1.6240667
0.03492675 0.368485 -1.6245999
0.045659002 0.36849251 -1.624625
0.055142 0.36869335 -1.6255332
0.064211749 0.36796999 -1.6223249
0.075339802 0.367872 -1.6234001
0.086034998 0.367414 -1.6228399
0.094472423 0.36743715 -1.6231428
0.10446715 0.36737284 -1.6228857
0.11551332 0.36757001 -1.6230334
0.12511666 0.36748835 -1.6238999
0.13460501 0.36745501 -1.62375
0.145174 0.36787 -1.6234
0.1543825 0.36788499 -1.6238251
0.164685 0.36834753 -1.624
0.17611714 0.36752716 -1.6235429
0.18505499 0.36770499 -1.6230251
0.1946325 0.36804497 -1.62265
0.20425001 0.367374 -1.6226599
0.21379399 0.36785799 -1.62332
0.22421798 0.36774001 -1.6227801
0.23612501 0.36762249 -1.62265
0.24554501 0.36761168 -1.6232333
0.25360751 0.36766499 -1.622825
0.26436749 0.36830249 -1.623775
0.27540749 0.36811 -1.622925
0.28566799 0.36732197 -1.62242
0.29522333 0.36735165 -1.6233166
0.30369499 0.3675867 -1.6231166
0.31577998 0.36813602 -1.62454
0.32501337 0.36806667 -1.6227666
0.33623168 0.36771831 -1.6236668
0.34483004 0.36706164 -1.6220168
0.35433 0.36742398 -1.62288
0.36384249 0.36803249 -1.6226
0.37325001 0.36726803 -1.6222
0.38481 0.36844751 -1.6244249
0.39472666 0.36820999 -1.6233999
0.40448749 0.36785501 -1.621825
0.41420999 0.36758003 -1.6230665
0.83450001 0.36651498 -1.6289999
0.84557003 0.36386418 -1.6266249
0.85512918 0.36489919 -1.6249332
0.86106664 0.36798334 -1.6223334
-0.69411504 0.37257999 -1.6273999
-0.68482864 0.37144285 -1.6256857
-0.6756025 0.37208 -1.627125
-0.66434002 0.37182 -1.62714
-0.65629667 0.37274995 -1.6281667
-0.64704335 0.37263334 -1.6276001
-0.62183499 0.37279499 -1.62835
-0.61685997 0.37163502 -1.6271
-0.60398 0.37013 -1.6243
-0.59214997 0.37277001 -1.62825
-0.58502001 0.37293002 -1.6289001
-0.57485253 0.373005 -1.6292249
-0.56493253 0.37050748 -1.6259999
-0.55338395 0.371454 -1.6270599
-0.54492253 0.371575 -1.626825
-0.53520715 0.37112144 -1.6253999
-0.52538145 0.37147999 -1.6269429
-0.51556504 0.370285 -1.625
-0.50445503 0.3717975 -1.625875
-0.49489832 0.37173 -1.6275166
-0.48625499 0.37163502 -1.627075
-0.47516665 0.37268332 -1.6278334
-0.46593499 0.37131333 -1.6269501
-0.45376751 0.37120751 -1.6271501
-0.44532332 0.37031332 -1.6251
-0.43490997 0.37015 -1.6244
-0.4255425 0.3705475 -1.6261749
-0.41523501 0.37309498 -1.62965
-0.40635595 0.37087601 -1.6260599
-0.39508998 0.37063 -1.62655
-0.38681501 0.37064499 -1.6266
-0.37415999 0.37201199 -1.62798
-0.36549801 0.37082797 -1.62586
-0.35374749 0.37097001 -1.6260749
-0.34588602 0.37098402 -1.6265399
-0.33458999 0.37050998 -1.626
-0.32482001 0.37017 -1.6244999
-0.31487602 0.37109202 -1.6270201
-0.30478752 0.37068999 -1.626775
-0.29522002 0.37056336 -1.6262335
-0.28593501 0.37090001 -1.627725
-0.27498001 0.37063253 -1.6265252
-0.26405001 0.370345 -1.625275
-0.25466335 0.37042332 -1.6256
-0.24530999 0.37055498 -1.6261749
-0.2387 0.37163499 -1.6271
-0.125075 0.371315 -1.62955
-0.11304667 0.37094665 -1.6279
-0.10437249 0.37106499 -1.6265
-0.095710754 0.37081748 -1.6273501
-0.085046001 0.37097251 -1.6280251
-0.074386254 0.37089252 -1.62765
-0.065046333 0.37096667 -1.6279999
-0.05568175 0.37119499 -1.629025
-0.044985503 0.37128997 -1.629425
-0.034352999 0.37097999 -1.62805
-0.025021331 0.37088665 -1.6276666
-0.01565275 0.37095001 -1.62795
-0.0049774251 0.37086749 -1.627575
0.0057363752 0.37088501 -1.62765
0.015129332 0.37094331 -1.6279
0.02458475 0.371135 -1.62875
0.035819333 0.37124336 -1.6292
0.044004999 0.3714025 -1.627975
0.054173749 0.37116 -1.62885
0.064761251 0.37075248 -1.62705
0.075881802 0.37120801 -1.6274999
0.085057996 0.37086001 -1.6275001
0.094600499 0.37099499 -1.6281
0.1054275 0.37096 -1.627975
0.11363 0.37105 -1.6284
0.12583999 0.3710033 -1.6281667
0.1352825 0.37086001 -1.6275251
0.14490668 0.37096 -1.6279668
0.1542875 0.3706975 -1.626825
0.16422333 0.37115335 -1.6288334
0.17494667 0.37081334 -1.6273333
0.18481249 0.37109497 -1.6285501
0.19547749 0.37064749 -1.6266
0.20557 0.37111998 -1.6286665
0.2167 0.37114334 -1.6288
0.22477001 0.37084666 -1.6274667
0.23465835 0.37153998 -1.6279668
0.24441999 0.37096334 -1.6279665
0.2544575 0.37118 -1.62895
0.26569501 0.37116501 -1.62885
0.27706999 0.37124503 -1.6292
0.28489 0.37063998 -1.626575
0.29566997 0.37156001 -1.62752
0.3049075 0.37075999 -1.627075
0.31524333 0.37105 -1.6283668
0.32476601 0.37120399 -1.62752
0.33497 0.37075999 -1.6271
0.345038 0.37085399 -1.62596
0.35482001 0.37048665 -1.6258999
0.36307502 0.37110752 -1.626675
0.3743825 0.37096751 -1.628
0.38453498 0.37132251 -1.62765
0.39439249 0.37061748 -1.626475
0.40466666 0.37059334 -1.6264
0.41248 0.37088001 -1.6276
0.82759798 0.37633801 -1.62836
0.83596903 0.37557909 -1.6244999
0.84550923 0.37514165 -1.6270334
0.85511386 0.37412304 -1.6233099
0.86106998 0.37125 -1.6216
0.82427502 0.38384247 -1.6277499
0.83371603 0.38486499 -1.62376
0.84476829 0.38425732 -1.6254818
0.85096002 0.38444501 -1.6231999
0.82716995 0.39471665 -1.6290666
0.83474088 0.39515498 -1.6245091
0.84639442 0.39475 -1.6243666
0.85308999 0.393635 -1.6214499
0.82795602 0.40646601 -1.62546
0.83590126 0.405296 -1.6243132
0.84455603 0.40548801 -1.6227601
0.85095 0.40689 -1.62075
0.82673001 0.41131499 -1.62525
0.83620232 0.41507614 -1.6253152
0.84340745 0.41506872 -1.6222626
0.83654332 0.42368832 -1.6221666
0.84293002 0.42769 -1.6205
0.33375001 -0.46048 -1.6101
0.36177 -0.46072 -1.6168
0.42535001 -0.46256 -1.6115
0.46717 -0.46072999 -1.6109999
0.47457668 -0.46095333 -1.6117998
0.58740997 -0.46156001 -1.6110001
0.59429139 -0.46142855 -1.6126001
0.62332994 -0.46167669 -1.6104001
0.63732666 -0.46064332 -1.6126333
0.64484799 -0.46105999 -1.6121399
0.73874998 -0.46057999 -1.6105
0.74602002 -0.46388 -1.6101
0.75695997 -0.46250999 -1.6114
0.76170498 -0.462255 -1.6105001
0.77293003 -0.46101999 -1.612
0.78478003 -0.46074 -1.6109999
0.79848999 -0.46046999 -1.6101
0.80941999 -0.46066999 -1.6166
0.81369495 -0.46013999 -1.61475
0.82456499 -0.46011502 -1.61465
0.83973002 -0.46261001 -1.6117001
0.84241003 -0.46215001 -1.6101
-1.0251666 -0.45068002 -1.6127666
-1.0132 -0.45343 -1.6102
-1.0053999 -0.45158285 -1.6115714
-0.99679571 -0.45211002 -1.6125715
-0.98655999 -0.45199001 -1.6112499
-0.80409998 -0.45093 -1.612125
-0.79549253 -0.45170876 -1.6125748
-0.78705502 -0.45047998 -1.6120501
-0.77719998 -0.45194501 -1.6111
-0.76256001 -0.45177001 -1.6105
-0.75488502 -0.45032001 -1.6115
-0.74548537 -0.45210275 -1.6122181
-0.73472166 -0.45132497 -1.6119834
-0.72436213 -0.45120001 -1.6139445
-0.71704 -0.45160666 -1.6119666
-0.70638996 -0.45086667 -1.6113666
-0.69765598 -0.45091802 -1.61114
-0.68437994 -0.451094 -1.6117599
-0.67547399 -0.45149803 -1.61072
-0.66417754 -0.451105 -1.6111749
-0.65431339 -0.45029333 -1.6114
-0.64583194 -0.45124197 -1.6110799
-0.6225425 -0.45072249 -1.6129249
-0.60501003 -0.45039499 -1.61175
-0.59476995 -0.45130333 -1.6119
-0.58541751 -0.45110002 -1.6127
-0.574435 -0.45099998 -1.6128999
-0.56519198 -0.45130402 -1.6112798
-0.55330282 -0.45111427 -1.6134573
-0.54548335 -0.45185331 -1.6118001
-0.535586 -0.45145196 -1.61243
-0.52302504 -0.45023 -1.61115
-0.514745 -0.45056498 -1.6124001
-0.50418574 -0.45206714 -1.6115429
-0.49497625 -0.45169377 -1.6117376
-0.488765 -0.45113 -1.6113
-0.477292 -0.45213598 -1.6117599
-0.46394002 -0.45072001 -1.611375
-0.45558 -0.45188999 -1.61215
-0.44517219 -0.45152441 -1.6137334
-0.43636122 -0.45198873 -1.6120249
-0.4255183 -0.45140001 -1.61225
-0.41612446 -0.45174 -1.6117333
-0.40445778 -0.45168558 -1.6122111
-0.39535248 -0.45158499 -1.612875
-0.38526219 -0.45112222 -1.6136779
-0.37475428 -0.45136142 -1.6125573
-0.36510751 -0.45215124 -1.6118125
-0.35539469 -0.45227936 -1.6126866
-0.3440322 -0.45136002 -1.6145223
-0.33546624 -0.45153999 -1.6135375
-0.32419199 -0.45152801 -1.61269
-0.31480667 -0.45142832 -1.6133833
-0.305033 -0.45131597 -1.6144301
-0.29470462 -0.45265847 -1.6145923
-0.285835 -0.45238587 -1.6136833
-0.27546442 -0.45167997 -1.6142666
-0.2645323 -0.45146462 -1.614154
-0.25442085 -0.45142666 -1.6139083
-0.24467099 -0.45192105 -1.61599
-0.23538001 -0.45211408 -1.6138824
-0.22352582 -0.45228997 -1.6128082
-0.21589001 -0.45253697 -1.6138
-0.20549573 -0.45222643 -1.6142855
-0.19485061 -0.45329183 -1.6127564
-0.18483688 -0.45245874 -1.6140749
-0.17461078 -0.45252463 -1.6150692
-0.16513138 -0.45321044 -1.61385
-0.15506501 -0.45255712 -1.6150358
-0.14525333 -0.45269752 -1.6137582
-0.13508099 -0.45179 -1.6142502
-0.12490067 -0.45218199 -1.6144198
-0.11415556 -0.45281395 -1.6138223
-0.10507833 -0.45237836 -1.6136667
-0.096092209 -0.45219865 -1.6137644
-0.084692948 -0.45259556 -1.6147889
-0.074849784 -0.45294359 -1.6146642
-0.064529851 -0.45307642 -1.613757
-0.055171754 -0.45241129 -1.6150688
-0.044998944 -0.45322058 -1.6146263
-0.034315132 -0.45237267 -1.6150932
-0.024853295 -0.45344758 -1.6138058
-0.015922043 -0.45458785 -1.6138607
-0.0039664996 -0.45364815 -1.6151812
0.0053785197 -0.45446268 -1.6132666
0.013921554 -0.45285389 -1.615339
0.025780413 -0.45265526 -1.6143236
0.035084445 -0.45378664 -1.6155502
0.04447547 -0.45359802 -1.6148601
0.055298503 -0.45250499 -1.6146251
0.065513305 -0.45430452 -1.6144249
0.074047297 -0.45378229 -1.6141307
0.085582867 -0.45341501 -1.6155125
0.095016375 -0.45489267 -1.6142948
0.10500287 -0.45364216 -1.6157999
0.11469199 -0.45481953 -1.6150148
0.12593238 -0.45462331 -1.6149049
0.13461058 -0.45558062 -1.6139706
0.14449894 -0.45532265 -1.6151317
0.15542279 -0.45457613 -1.6144999
0.16474751 -0.45353746 -1.6151918
0.17485227 -0.45478404 -1.6148545
0.18483286 -0.45478362 -1.6139858
0.19471 -0.45455241 -1.6164478
0.20582429 -0.45493791 -1.6159073
0.2144679 -0.45503691 -1.6154052
0.22522075 -0.45521456 -1.6145154
0.23529111 -0.45472717 -1.6157111
0.24457498 -0.45464283 -1.6148145
0.25496474 -0.45475703 -1.6147941
0.26487449 -0.45479 -1.6163334
0.274988 -0.45650804 -1.6134133
0.2854394 -0.4551841 -1.615953
0.2949622 -0.45508724 -1.6152334
0.30451685 -0.4553237 -1.6152498
0.315294 -0.45489135 -1.6152666
0.32463083 -0.4552328 -1.61594
0.33515105 -0.45621419 -1.6142842
0.34559947 -0.45556575 -1.6153054
0.35486233 -0.45583078 -1.6152231
0.36502078 -0.45727688 -1.6150002
0.37545434 -0.45638353 -1.6147
0.38524002 -0.45619687 -1.6148895
0.3956731 -0.45616621 -1.6158873
0.4054164 -0.45611495 -1.6169142
0.41453004 -0.4563781 -1.6150188
0.42546216 -0.45614001 -1.6156644
0.43547231 -0.45666614 -1.6152616
0.4443382 -0.4560512 -1.6152884
0.45478821 -0.45693004 -1.6154588
0.46434 -0.45657584 -1.6149
0.47472858 -0.45736068 -1.6136285
0.48415363 -0.45543453 -1.6149819
0.4905 -0.45396 -1.6183
0.57530665 -0.45600536 -1.6149668
0.58513224 -0.45673159 -1.6159846
0.59538442 -0.45604566 -1.6165813
0.60537821 -0.45705634 -1.615491
0.61517298 -0.45731902 -1.6150301
0.62468195 -0.45615876 -1.6166313
0.63483244 -0.45643416 -1.614975
0.64519924 -0.45733151 -1.6161461
0.65463912 -0.45644453 -1.6150638
0.66587329 -0.45676497 -1.615075
0.67460918 -0.45687005 -1.6145077
0.68513644 -0.45623946 -1.6155881
0.69460493 -0.45667002 -1.6147417
0.7053026 -0.45681134 -1.6165932
0.71421528 -0.45603466 -1.61594
0.72463673 -0.4569875 -1.6143166
0.73552603 -0.45768905 -1.6144301
0.74433005 -0.45594102 -1.61514
0.754605 -0.4573375 -1.6139168
0.76465899 -0.45723596 -1.6141199
0.77494234 -0.45717385 -1.6160462
0.78577393 -0.45766503 -1.6137197
0.7954483 -0.45668331 -1.6148001
0.80475616 -0.45594537 -1.6156076
0.81471807 -0.45675302 -1.6149499
0.8239789 -0.45659223 -1.6135888
0.83286995 -0.45663145 -1.6151428
0.84025002 -0.45637 -1.6144
-1.03503 -0.44676098 -1.6137699
-1.0248286 -0.4453164 -1.6159213
-1.0162799 -0.446383 -1.6161999
-1.0047858 -0.44702148 -1.6144429
-0.99422997 -0.4472822 -1.6159333
-0.98661834 -0.44500002 -1.6143665
-0.82028997 -0.440465 -1.6166
-0.8154031 -0.44535077 -1.615854
-0.80539572 -0.44717285 -1.6163357
-0.79538 -0.44736546 -1.6168727
-0.78489256 -0.44786 -1.6152375
-0.77603102 -0.44760805 -1.6155602
-0.76507753 -0.44726995 -1.6151916
-0.75591421 -0.44801167 -1.6152334
-0.74550331 -0.44813001 -1.6161666
-0.73608893 -0.44815335 -1.6162667
-0.72541428 -0.44844002 -1.6164
-0.7141661 -0.44716769 -1.6170846
-0.70453638 -0.44756451 -1.617009
-0.69506204 -0.44698265 -1.6162533
-0.68535113 -0.44665059 -1.6164058
-0.67434454 -0.44725093 -1.6164454
-0.66432399 -0.44689599 -1.6148899
-0.65443158 -0.44711697 -1.6159307
-0.64514691 -0.44713923 -1.6160079
-0.63537925 -0.44723937 -1.6150666
-0.62604111 -0.44738996 -1.615622
-0.61593813 -0.4479031 -1.6157627
-0.60548842 -0.44744077 -1.6151614
-0.59538919 -0.44769335 -1.6172333
-0.58515328 -0.44846582 -1.6158084
-0.57485753 -0.44796127 -1.616375
-0.56474769 -0.44745773 -1.6161921
-0.55531204 -0.447359 -1.6165701
-0.54399252 -0.44735 -1.6154667
-0.53507334 -0.44851997 -1.6175778
-0.525249 -0.44834104 -1.61568
-0.51505101 -0.44823599 -1.6152899
-0.50453913 -0.44805816 -1.6165
-0.49541157 -0.44777387 -1.6173078
-0.48409539 -0.44690615 -1.6171076
-0.4751009 -0.44823816 -1.6159819
-0.46543777 -0.4484922 -1.6167889
-0.45464122 -0.44875628 -1.616025
-0.44516835 -0.44820166 -1.6175169
-0.43550232 -0.44784847 -1.6166153
-0.4255493 -0.44757 -1.6173214
-0.41529167 -0.44786334 -1.6167833
-0.40523875 -0.44738811 -1.6166751
-0.39583334 -0.4479467 -1.6183
-0.38746601 -0.44863802 -1.618
-0.37457711 -0.44902712 -1.6166999
-0.36561832 -0.44815168 -1.6173
-0.35493097 -0.44807196 -1.6172298
-0.34674001 -0.44864666 -1.6169833
-0.33486599 -0.44761005 -1.61747
-0.32596374 -0.44885752 -1.6172249
-0.3157483 -0.44937167 -1.6174999
-0.30473 -0.44837999 -1.6170667
-0.29646334 -0.44904003 -1.6163001
-0.28289998 -0.44914001 -1.6166
-0.277908 -0.44908199 -1.6158199
-0.25374749 -0.44878998 -1.61695
-0.245175 -0.44819498 -1.61955
-0.2335625 -0.44828501 -1.618325
-0.22604498 -0.44823 -1.6173126
-0.214672 -0.448948 -1.61658
-0.20538001 -0.44846666 -1.6173834
-0.19504748 -0.44925749 -1.6170623
-0.18032999 -0.44883999 -1.6187
-0.17497666 -0.44900334 -1.6193333
-0.16148999 -0.44881999 -1.6186
-0.15387167 -0.44930831 -1.6183
-0.143995 -0.44858 -1.6178
-0.13302001 -0.44851798 -1.6188599
-0.12835334 -0.44927999 -1.6182333
-0.113678 -0.44889197 -1.6176399
-0.10599 -0.44872335 -1.6183
-0.093833208 -0.44886598 -1.61628
-0.085859172 -0.44844332 -1.6194333
-0.070197001 -0.448165 -1.61945
-0.067521997 -0.44883999 -1.6187
-0.052315336 -0.44819 -1.6185001
-0.0460428 -0.44846201 -1.6186399
-0.033901498 -0.44909501 -1.61965
-0.029874001 -0.44905001 -1.6195
0.0078322003 -0.44903001 -1.6194
0.071478501 -0.44912499 -1.61975
0.10412 -0.44819999 -1.6196001
0.16596 -0.44909999 -1.6197
-0.82142001 -0.43939 -1.6158
0.65728247 -0.40231746 -1.619125
0.66623336 -0.40020666 -1.6175333
0.64820331 -0.39246666 -1.6187
0.65528667 -0.39634001 -1.618175
0.66495502 -0.39457196 -1.6176698
0.64728296 -0.382911 -1.6181101
0.65472907 -0.38541999 -1.6144851
0.66431075 -0.38445002 -1.6130501
0.67377424 -0.38429001 -1.6164142
0.64806753 -0.37512168 -1.6173416
0.65464103 -0.37430891 -1.6127948
0.66485435 -0.375025 -1.6120431
0.67468643 -0.37480217 -1.6147072
0.68259281 -0.37519714 -1.6180286
0.6479643 -0.36619714 -1.6181144
0.65430564 -0.36513007 -1.6137778
0.66645908 -0.36453816 -1.6135091
0.67487335 -0.36429134 -1.6151868
0.68320197 -0.36457402 -1.61842
0.64910001 -0.35960001 -1.619
0.65143996 -0.35816333 -1.6150999
0.67610002 -0.35982001 -1.62
0.68586999 -0.35809001 -1.6199
0.89649999 -0.14222001 -1.62
0.90518004 -0.14286001 -1.6192572
0.91429394 -0.14386 -1.6177101
0.92022002 -0.14430499 -1.6158
0.89685571 -0.13179429 -1.6157857
0.90498167 -0.13267 -1.6138668
0.9144547 -0.13467923 -1.6145999
0.92357332 -0.13089 -1.6125666
0.89560419 -0.12625787 -1.6171929
0.90342063 -0.12533785 -1.6141285
0.91506499 -0.12698999 -1.6145625
0.92361665 -0.12634499 -1.6139334
0.88697499 -0.11385 -1.617775
0.89222622 -0.11742376 -1.6149001
0.86940002 0.089321002 -1.6165
0.87510329 0.089179665 -1.6139666
0.88610506 0.086444169 -1.6130333
0.89462817 0.085911363 -1.6130456
0.9057914 0.08581157 -1.6154286
0.91348428 0.085550852 -1.6148857
0.92238754 0.088011995 -1.6147
0.79551667 0.098772667 -1.6128668
0.80594409 0.096887402 -1.6138601
0.81170338 0.09777233 -1.6143667
0.82809335 0.095477007 -1.6121668
0.83543998 0.095986001 -1.6167287
0.84512269 0.095656991 -1.6150635
0.85423285 0.094622143 -1.6170428
0.86043 0.092367001 -1.6138
0.87557203 0.092661008 -1.6189998
0.88654006 0.093195997 -1.6177375
0.895154 0.094558008 -1.6180999
0.90429991 0.094297692 -1.6166599
0.91499668 0.093644999 -1.6174332
0.92537999 0.091694504 -1.61605
0.76469004 0.107605 -1.6131999
0.77656001 0.10487834 -1.6139168
0.78572994 0.10342 -1.6154715
0.79517502 0.10163999 -1.6140833
0.80328 0.10255 -1.6196001
0.81277996 0.10143 -1.6197666
0.826105 0.100825 -1.6192
0.83130997 0.10081 -1.6188999
0.84644997 0.10087 -1.62
0.86479002 0.10257 -1.6199
0.89058 0.10087 -1.6198
0.74659753 0.115335 -1.6170499
0.75440162 0.11331084 -1.6168332
0.76642001 0.110545 -1.61895
0.74770999 0.12021 -1.6187
0.016321 0.35855001 -1.6104
0.13903999 0.35852 -1.6102999
0.23593 0.35864002 -1.6108501
-0.75378674 0.36341333 -1.612
-0.74369502 0.36516666 -1.6136335
-0.73598999 0.36481249 -1.6138999
-0.7253437 0.36493251 -1.6144251
-0.71470863 0.36508146 -1.6148144
-0.70878243 0.36394501 -1.6137249
-0.69151002 0.36366001 -1.6106
-0.68578756 0.36346251 -1.611625
-0.67509377 0.36546877 -1.614975
-0.66451997 0.36487749 -1.6150999
-0.65611005 0.36543876 -1.6166625
-0.64528662 0.36563 -1.6156834
-0.63564998 0.365044 -1.6138599
-0.62548333 0.36539665 -1.6158667
-0.61525428 0.36607999 -1.6171571
-0.60470748 0.36447251 -1.6142499
-0.59477252 0.36553749 -1.6162
-0.58460283 0.36584002 -1.6171572
-0.57521999 0.365522 -1.6159399
-0.56448728 0.36475542 -1.6148182
-0.55525428 0.36539143 -1.6161858
-0.54532361 0.36459544 -1.6147546
-0.53529775 0.36454776 -1.6153778
-0.52516001 0.36449778 -1.6143222
-0.51611745 0.3642675 -1.6151626
-0.50506711 0.36434001 -1.6136428
-0.49507502 0.36415249 -1.61465
-0.48470333 0.36409166 -1.6150001
-0.47441 0.36373001 -1.6137
-0.46590334 0.36464557 -1.6158111
-0.45419854 0.36396429 -1.6140858
-0.44570568 0.36398003 -1.6152142
-0.43565449 0.3642711 -1.6149554
-0.42565373 0.36383003 -1.6150625
-0.41499195 0.365022 -1.61667
-0.40476334 0.36266112 -1.6127666
-0.39576223 0.36351222 -1.6148999
-0.38476375 0.36426252 -1.6151124
-0.37555227 0.36442 -1.6156112
-0.36526501 0.36381623 -1.6150124
-0.35563162 0.36451998 -1.6169
-0.34480712 0.36337999 -1.6146715
-0.33524752 0.36360997 -1.6141124
-0.32464001 0.36350718 -1.6141716
-0.31565997 0.36344779 -1.6145887
-0.30491126 0.36322626 -1.6142375
-0.29510501 0.36407623 -1.6161625
-0.28520817 0.36327454 -1.6143092
-0.2749778 0.36291224 -1.6138666
-0.265614 0.36458498 -1.6161999
-0.25501907 0.36290184 -1.614
-0.2443825 0.36349002 -1.614475
-0.23863 0.36268499 -1.613675
-0.122115 0.36267501 -1.6136
-0.11386635 0.3633509 -1.6159909
-0.10534715 0.3635357 -1.6153429
-0.095367722 0.3628718 -1.6138637
-0.08501289 0.36326671 -1.6154554
-0.075021997 0.36371779 -1.6158222
-0.064024404 0.36302599 -1.6152201
-0.0554295 0.363675 -1.6153125
-0.045178276 0.36303818 -1.6145999
-0.034966834 0.36286834 -1.6145167
-0.024368584 0.36294749 -1.614875
-0.0146284 0.36255997 -1.6138999
-0.0059323371 0.36217627 -1.6132874
0.0052923174 0.3633489 -1.6158221
0.015084091 0.36324093 -1.6154999
0.025973873 0.36242375 -1.6144125
0.034423556 0.36324888 -1.6145664
0.045128223 0.36356005 -1.615111
0.055227187 0.36317182 -1.6152
0.06558872 0.36272541 -1.6145637
0.074811116 0.36306223 -1.6153998
0.084119596 0.362519 -1.61446
0.095328882 0.36195627 -1.614175
0.10545126 0.36225125 -1.6145625
0.11462222 0.36263999 -1.6143445
0.12479375 0.36179122 -1.6134499
0.135325 0.36141625 -1.6117749
0.14520332 0.36321333 -1.6160445
0.155233 0.36279899 -1.6142099
0.16473445 0.36272219 -1.6138668
0.17452112 0.3623344 -1.6146224
0.18536858 0.36412713 -1.6169142
0.19522272 0.3626909 -1.6144
0.20580602 0.36414999 -1.6171999
0.21524332 0.3626278 -1.6142777
0.22527802 0.36282799 -1.6143398
0.23484111 0.36308554 -1.6154779
0.24420875 0.36247623 -1.614625
0.25655377 0.36357498 -1.6167251
0.26533639 0.36322543 -1.6154362
0.27511597 0.36274898 -1.6147401
0.28412002 0.36264428 -1.6145713
0.29403001 0.36205751 -1.6127626
0.30579498 0.36265498 -1.6144999
0.31429285 0.36305144 -1.614257
0.324839 0.36304098 -1.6137998
0.33538288 0.36201859 -1.6128714
0.34542835 0.36269835 -1.6149832
0.35653502 0.36361751 -1.61595
0.36411667 0.36375666 -1.6147333
0.3757157 0.36283427 -1.6143714
0.38413107 0.36328778 -1.6155332
0.39478555 0.36383888 -1.6163443
0.40518332 0.36286333 -1.6144888
0.41398874 0.36250624 -1.6138499
0.86475998 0.36587501 -1.6168001
0.84886003 0.37413001 -1.6191
0.85575324 0.37318501 -1.6185001
0.86211997 0.37206 -1.6171
0.83666003 0.38776001 -1.62
0.84329498 0.38217998 -1.6171
0.85407329 0.38740167 -1.6174666
0.86159998 0.38668001 -1.61885
0.83856601 0.39562201 -1.6176199
0.84506875 0.39737874 -1.617175
0.85554767 0.39368385 -1.6170539
0.86243004 0.3957943 -1.6145571
0.83877003 0.40087998 -1.6173
0.84520137 0.40556359 -1.6172212
0.85408217 0.40556711 -1.6144714
0.86053503 0.40211999 -1.6133499
0.83692664 0.41479334 -1.6127334
0.84698248 0.41615498 -1.614375
0.85521752 0.41419914 -1.6142334
0.86265999 0.41306502 -1.6110001
0.83784002 0.42336333 -1.6171666
0.8463726 0.42516133 -1.6162466
0.85292995 0.42401895 -1.6122801
0.84429628 0.43287253 -1.6144626
0.85148662 0.4331567 -1.6127833
0.78128999 -0.4702 -1.602
-0.55690002 -0.46097001 -1.6001
-0.53594995 -0.46009499 -1.6029501
-0.30744499 -0.46021497 -1.6033499
-0.29222 -0.46110001 -1.6005
-0.28678 -0.46101001 -1.6002001
-0.26815 -0.46004 -1.6028
-0.25176001 -0.461 -1.6001
-0.204335 -0.46064001 -1.6018999
-0.19621199 -0.46092001 -1.60224
-0.17154001 -0.461 -1.6002001
-0.14492001 -0.46101999 -1.6002001
-0.11301 -0.46281001 -1.6004
-0.10370249 -0.46078253 -1.60235
-0.099710003 -0.46020001 -1.6033
-0.083738998 -0.46478 -1.6009001
-0.070432 -0.46303999 -1.6012
-0.067739002 -0.46351668 -1.6027666
-0.053165 -0.46104997 -1.6003499
-0.0451345 -0.460605 -1.60175
-0.033582665 -0.46094 -1.6019167
-0.027868001 -0.46107 -1.6004
-0.0043091201 -0.46150598 -1.6019001
0.0069050663 -0.46092001 -1.6019
0.01572625 -0.46075997 -1.6038001
0.0239652 -0.46123201 -1.60096
0.034259602 -0.46097198 -1.6024401
0.048410498 -0.46219003 -1.6013249
0.054787427 -0.46106574 -1.6020714
0.065405607 -0.46155801 -1.60208
0.075043254 -0.46157002 -1.6021127
0.085036196 -0.46111402 -1.6041
0.094360419 -0.46200141 -1.6010714
0.10551375 -0.46131879 -1.6027499
0.11588001 -0.46223873 -1.6014
0.12425375 -0.46107247 -1.6033875
0.13503778 -0.4608922 -1.6037333
0.14521 -0.46085802 -1.60324
0.15478556 -0.46163335 -1.6036668
0.16572572 -0.46128574 -1.6028427
0.17555888 -0.46176562 -1.6021445
0.18564299 -0.46200699 -1.6035898
0.19459635 -0.46185458 -1.6030636
0.20555902 -0.46214399 -1.6022499
0.21482749 -0.46101373 -1.6032001
0.225244 -0.461685 -1.6037
0.23532499 -0.46183833 -1.6045332
0.24503309 -0.46230155 -1.6023
0.25468335 -0.46149778 -1.6032
0.26461908 -0.46183273 -1.6024818
0.27466667 -0.46254888 -1.6054556
0.28519166 -0.46231672 -1.6041832
0.29477888 -0.46180779 -1.6029333
0.30451125 -0.46236935 -1.6033063
0.31469634 -0.46159089 -1.6059546
0.32473332 -0.4627493 -1.6037335
0.33523908 -0.46193907 -1.6055272
0.34555691 -0.46244541 -1.603231
0.35494089 -0.46260273 -1.6034454
0.363931 -0.46234599 -1.60359
0.37585768 -0.46219155 -1.6060617
0.38439333 -0.4628078 -1.605711
0.39542428 -0.46335217 -1.6051714
0.40438932 -0.46289003 -1.6054066
0.41469249 -0.46280757 -1.6038584
0.42561436 -0.4635869 -1.6052312
0.43491152 -0.46256149 -1.603623
0.44517571 -0.46360865 -1.6052427
0.45480844 -0.46339613 -1.6041769
0.46416846 -0.46333051 -1.604916
0.47526783 -0.46230859 -1.6046284
0.56673414 -0.46332335 -1.6030668
0.57593918 -0.46307671 -1.6042414
0.58507997 -0.46385181 -1.6038909
0.59587401 -0.46338996 -1.60478
0.60457283 -0.46237785 -1.6052644
0.61544997 -0.46220729 -1.6048089
0.62584633 -0.46391088 -1.6057091
0.63443935 -0.46367127 -1.6040062
0.6456427 -0.46375456 -1.6046817
0.65419185 -0.46263912 -1.6046729
0.66562647 -0.46305862 -1.6028855
0.67480177 -0.4628973 -1.6027817
0.68415785 -0.46340784 -1.6040428
0.69510645 -0.46251574 -1.6040285
0.70405102 -0.46216598 -1.6046798
0.71465385 -0.46311614 -1.6041615
0.72457856 -0.46358711 -1.6046644
0.73376 -0.46331379 -1.6043
0.74545592 -0.463862 -1.6046866
0.75433218 -0.46314329 -1.6041112
0.76521081 -0.46375 -1.603525
0.77451092 -0.4628064 -1.6046909
0.78463668 -0.46386161 -1.6048889
0.79479003 -0.46353471 -1.6055734
0.80377251 -0.46231499 -1.605125
0.81509513 -0.46264437 -1.6049687
0.82530093 -0.4620536 -1.6053635
0.83500499 -0.46263167 -1.6067501
0.84498227 -0.46288666 -1.6052889
0.85309333 -0.46354666 -1.6008333
-1.0521333 -0.45451331 -1.6013666
-1.0442444 -0.45299 -1.6029668
-1.0355934 -0.45347068 -1.6052201
-1.0247 -0.45340601 -1.6037099
-1.0156294 -0.45416239 -1.6045703
-1.0032667 -0.4535867 -1.6044167
-0.99513835 -0.45424998 -1.6036
-0.98494244 -0.45460165 -1.6033834
-0.97954005 -0.45603335 -1.6007333
-0.92389435 -0.45484996 -1.6015856
-0.81150401 -0.45254201 -1.6032002
-0.80461329 -0.45334736 -1.6034867
-0.79567671 -0.45479336 -1.6060082
-0.78505456 -0.45351765 -1.6046001
-0.77525574 -0.45414859 -1.605943
-0.76536143 -0.45406073 -1.6051215
-0.75572532 -0.45448118 -1.6053644
-0.74576497 -0.45549297 -1.60548
-0.73492181 -0.45446548 -1.6051908
-0.72475916 -0.45464998 -1.6047384
-0.71426767 -0.45386308 -1.6043922
-0.70512229 -0.45402843 -1.6059386
-0.69427568 -0.45393783 -1.6047143
-0.68518585 -0.45370582 -1.6053582
-0.67475504 -0.45434856 -1.6043571
-0.66442496 -0.45451784 -1.60455
-0.65548158 -0.45459732 -1.6053476
-0.64590132 -0.45439467 -1.6051533
-0.63516831 -0.45387444 -1.6043391
-0.62521267 -0.45373735 -1.6061532
-0.61479312 -0.45438105 -1.6048945
-0.60555744 -0.45442814 -1.6065438
-0.59575856 -0.45427927 -1.6054785
-0.58492625 -0.45422879 -1.6054624
-0.57480747 -0.45412558 -1.6047312
-0.56426269 -0.45459664 -1.60586
-0.55496061 -0.4546147 -1.6058117
-0.54482144 -0.45540428 -1.6050072
-0.53528064 -0.45547134 -1.60358
-0.52484298 -0.4542945 -1.6050348
-0.51504129 -0.4539533 -1.6056465
