# .PCD v0.7 - Point Cloud Data file format
VERSION 0.7
FIELDS x y z rgb
SIZE 4 4 4 4
TYPE F F F F
COUNT 1 1 1 1
WIDTH 327
HEIGHT 1
VIEWPOINT 0 0 0 1 0 0 0
POINTS 327
DATA ascii
-2.4748588 -4.2402139 -5.2033242e-06 1.4290323e-38
-2.2996438 -4.238718 -4.3833256e-06 1.4290323e-38
-2.0988059 -4.238719 -4.4465064e-06 1.4290323e-38
-1.8979682 -4.2387166 -4.3296814e-06 1.4290323e-38
-1.7854987 -4.2387176 -4.2517981e-06 1.4290323e-38
1.7661748 -4.237772 -5.0101962e-06 1.4013374e-38
1.9018005 -4.2387185 -4.8792363e-06 1.4290323e-38
2.1016438 -4.2383857 -4.6238756e-06 1.4290323e-38
2.3004496 -4.2386098 -4.4468679e-06 1.4290323e-38
2.4955161 -4.2399974 -4.6880623e-06 1.4290323e-38
2.605515 -4.2719359 -4.8875809e-06 1.4290323e-38
-2.4436412 -4.1177197 -5.3498479e-06 1.4290323e-38
-2.3000042 -4.0988965 -4.7072122e-06 1.4290323e-38
-2.100354 -4.0990834 -4.4371773e-06 1.4290323e-38
-1.899415 -4.0992589 -4.4056274e-06 1.4290323e-38
-1.7865546 -4.0996194 -4.4637254e-06 1.4290323e-38
1.7672306 -4.1014576 -4.6114378e-06 1.4198126e-38
1.8999875 -4.0989833 -4.4144199e-06 1.4290323e-38
2.0992248 -4.0984526 -4.6121663e-06 1.4290323e-38
2.300168 -4.099174 -4.5722695e-06 1.4290323e-38
2.4642353 -4.1112542 -4.6116966e-06 1.4290323e-38
-2.4105155 -3.9835205 -4.5498214e-06 1.4290323e-38
-2.2876983 -3.9073381 -4.7984086e-06 1.4290323e-38
-2.0994682 -3.8989475 -4.6023738e-06 1.4290323e-38
-1.8994948 -3.8986804 -4.7513417e-06 1.4290323e-38
-1.7852082 -3.8938129 -4.8003544e-06 1.364423e-38
1.7649385 -3.898483 -4.212467e-06 1.410557e-38
1.8995395 -3.8994744 -4.2891261e-06 1.4290323e-38
2.1002038 -3.898484 -4.1339495e-06 1.4290323e-38
2.2976654 -3.9003975 -4.2670281e-06 1.4290323e-38
2.4249611 -3.9573038 -4.3817467e-06 1.4290323e-38
-2.2424273 -3.7178795 -4.526788e-06 1.4290323e-38
-2.1000817 -3.6961479 -4.70236e-06 1.4290323e-38
-1.90018 -3.6964741 -4.7792796e-06 1.4290323e-38
-1.7860198 -3.6969986 -4.1560693e-06 1.3828982e-38
1.7667255 -3.6946642 -4.1835715e-06 1.410593e-38
1.9008055 -3.6963003 -4.031619e-06 1.4290323e-38
2.1000543 -3.6968293 -4.176221e-06 1.4290323e-38
2.2622335 -3.7091684 -4.0728742e-06 1.4290323e-38
-2.2077696 -3.5819042 -4.1325889e-06 1.4290323e-38
-2.0860963 -3.5036094 -4.658848e-06 1.4290323e-38
-1.9005737 -3.494503 -4.7791514e-06 1.4290323e-38
-1.7893318 -3.5040178 -4.6220694e-06 1.4198127e-38
1.7655488 -3.4944806 -4.0005511e-06 1.410593e-38
1.8994737 -3.4937005 -4.1848407e-06 1.4290323e-38
2.097254 -3.4974265 -4.0508485e-06 1.4290323e-38
2.223475 -3.5550544 -4.0036875e-06 1.4290323e-38
-2.0408044 -3.3163211 -4.5205866e-06 1.4290323e-38
-1.9013196 -3.2951846 -4.1425988e-06 1.4290323e-38
-1.7870224 -3.2913978 -4.0648415e-06 1.3736786e-38
1.7664639 -3.2934828 -4.0986961e-06 1.410593e-38
1.9002963 -3.2949665 -3.8965786e-06 1.4290323e-38
2.0605702 -3.3087676 -3.9464549e-06 1.4290323e-38
-2.0078275 -3.1858404 -3.8146973e-06 1.4290323e-38
-1.885769 -3.1079197 -3.7572679e-06 1.4290323e-38
-1.7855018 -3.104538 -3.7200866e-06 1.4013734e-38
1.7658763 -3.1002238 -3.7910036e-06 1.4197767e-38
1.8967243 -3.1016681 -3.8011972e-06 1.4290323e-38
2.0217664 -3.1567855 -3.6212634e-06 1.4290323e-38
-1.840297 -2.923105 -3.6691918e-06 1.4290323e-38
-1.7858465 -2.8943083 -4.0972068e-06 1.4013734e-38
1.7666409 -2.8976479 -3.7215082e-06 1.4197767e-38
1.8611269 -2.9139545 -3.7263942e-06 1.4290323e-38
-1.8060784 -2.7861967 -4.8677125e-06 1.4290323e-38
-1.7834055 -2.763953 -4.0253003e-06 1.3552393e-38
1.7627591 -2.7035966 -3.6615133e-06 1.410593e-38
1.8199511 -2.7566741 -3.6286585e-06 1.4290323e-38
-1.6121706 -2.4114234 -2.4239223e-06 1.2999224e-38
-1.5013728 -2.4099193 -3.4825414e-06 1.3275811e-38
-1.3009953 -2.4099195 -3.6598271e-06 1.3276169e-38
-1.0997669 -2.4098449 -3.8500561e-06 1.3276169e-38
-0.89938414 -2.4098411 -4.0130367e-06 1.3276169e-38
-0.69987285 -2.4099224 -4.1774197e-06 1.3276169e-38
-0.49949506 -2.4099169 -3.4478994e-06 1.3276169e-38
-0.29911751 -2.4099195 -2.9078915e-06 1.3368005e-38
-0.13213639 -2.4099193 -2.5874529e-06 1.3368006e-38
0.12475762 -2.4099176 -3.0954679e-06 1.3276169e-38
0.30116406 -2.409843 -3.5475041e-06 1.3368365e-38
0.49981841 -2.4099219 -3.6420493e-06 1.3368006e-38
0.69933951 -2.4099195 -3.5059759e-06 1.3368365e-38
0.89971668 -2.4099226 -3.2023486e-06 1.34602e-38
1.1000941 -2.4099193 -3.2094808e-06 1.34602e-38
1.2996116 -2.4098418 -3.2042635e-06 1.34602e-38
1.4991316 -2.4099209 -3.2135565e-06 1.34602e-38
1.6654221 -2.4553943 -3.2659561e-06 1.3644592e-38
-1.604053 -2.3860087 -2.3444493e-06 1.4290323e-38
-1.4837173 -2.3055072 -3.7309837e-06 1.4290323e-38
-1.3001698 -2.2963989 -3.6292174e-06 1.4290323e-38
-1.0997947 -2.2965267 -3.6939414e-06 1.4290323e-38
-0.8997106 -2.2978828 -3.8411449e-06 1.4290323e-38
-0.69972473 -2.2967501 -3.8924145e-06 1.4290323e-38
-0.49982184 -2.2965498 -3.7550283e-06 1.4290323e-38
-0.30008349 -2.2966583 -3.7969701e-06 1.4290323e-38
-0.13082877 -2.2956421 -3.7773748e-06 1.4198127e-38
0.12343805 -2.2963953 -3.5987457e-06 1.4198127e-38
0.29988885 -2.29669 -3.4976213e-06 1.4290323e-38
0.49984345 -2.2964923 -3.4339719e-06 1.4290323e-38
0.70001405 -2.2966177 -3.5406958e-06 1.4290323e-38
0.8999688 -2.2966168 -3.6818567e-06 1.4290323e-38
1.0999234 -2.2965837 -3.5949051e-06 1.4290323e-38
1.2998775 -2.2966027 -3.582194e-06 1.4290323e-38
1.4962267 -2.2995815 -3.5147341e-06 1.4290323e-38
1.6196412 -2.3564 -3.7581492e-06 1.4290323e-38
-1.4393342 -2.1263685 -3.5409821e-06 1.4290323e-38
-1.2993497 -2.0998673 -3.409448e-06 9.7727368e-39
-1.1002078 -2.0999711 -3.7746495e-06 8.0210198e-39
-0.90023541 -2.0996077 -3.7194948e-06 8.0210198e-39
-0.7000894 -2.0996034 -3.7363891e-06 8.0210198e-39
-0.51030767 -2.127902 -3.8767471e-06 8.3898023e-39
-0.3000119 -2.1408217 -3.8039877e-06 8.5741936e-39
-0.12671548 -2.1404281 -3.5070991e-06 8.4819979e-39
0.12271773 -2.1406343 -3.5360115e-06 8.4819979e-39
0.30013457 -2.1407592 -3.5510714e-06 8.4819979e-39
0.51040077 -2.1280103 -3.4638113e-06 1.1432258e-38
0.69994795 -2.0994997 -3.5745331e-06 1.4290323e-38
0.89991754 -2.0995922 -3.5184678e-06 1.4290323e-38
1.1000578 -2.0994899 -3.4750071e-06 1.4290323e-38
1.3001995 -2.0995371 -3.4432317e-06 1.4290323e-38
1.4584707 -2.115016 -3.4597142e-06 1.4290323e-38
-1.4052989 -1.9919302 -3.3527613e-06 1.4290323e-38
-1.2827266 -1.9080982 -2.9689334e-06 8.2976067e-39
-1.100127 -1.8967388 -3.2443722e-06 7.3756504e-39
-0.89916372 -1.8964412 -3.4927345e-06 7.3756504e-39
-0.70068699 -1.8954763 -3.6738286e-06 7.3756504e-39
-0.57948071 -1.8971382 -3.4290201e-06 7.3756504e-39
0.57935578 -1.8997419 -3.76355e-06 1.4198127e-38
0.70073605 -1.8977119 -3.6612887e-06 1.4290323e-38
0.89919472 -1.8955889 -3.6455313e-06 1.4290323e-38
1.1000556 -1.8967154 -3.5814442e-06 1.4290323e-38
1.2954955 -1.9005029 -3.4779268e-06 1.4290323e-38
1.4198047 -1.9624385 -3.3318495e-06 1.4290323e-38
-1.2368419 -1.7233858 -3.2253479e-06 7.3756504e-39
-1.0994931 -1.6953466 -3.1617051e-06 7.3756504e-39
-0.90007693 -1.6951698 -3.3113101e-06 7.3756504e-39
-0.70034927 -1.6949927 -3.5508965e-06 7.3756504e-39
-0.57919425 -1.6953566 -3.4161419e-06 7.3756504e-39
0.57940793 -1.6951731 -3.5195737e-06 1.4198127e-38
0.70003623 -1.6951658 -3.3987244e-06 1.4290323e-38
0.8990317 -1.6959426 -3.2239309e-06 1.4290323e-38
1.1002156 -1.6951472 -3.2645271e-06 1.4290323e-38
1.2563685 -1.7130027 -3.5386406e-06 1.4290323e-38
-1.2037952 -1.5924206 -2.6396342e-06 7.3756504e-39
-1.082029 -1.5058033 -2.8780528e-06 7.3756504e-39
-0.89900452 -1.4956881 -3.2167595e-06 7.3756504e-39
-0.70000106 -1.495499 -3.4088353e-06 7.3756504e-39
-0.51007003 -1.4707704 -3.4933569e-06 7.3756504e-39
-0.29896802 -1.4595766 -3.5048845e-06 7.3756504e-39
-0.099511378 -1.4599564 -3.7908553e-06 7.3756504e-39
0.099765196 -1.4591622 -4.1230392e-06 7.3756504e-39
0.29996395 -1.458637 -3.50036e-06 7.3756504e-39
0.50765884 -1.4689512 -3.2576336e-06 1.0786889e-38
0.69997156 -1.4970087 -3.4151672e-06 1.4290323e-38
0.90118605 -1.4952891 -3.4405218e-06 1.4290323e-38
1.0955352 -1.5001915 -3.4158306e-06 1.4290323e-38
1.2183312 -1.5625956 -3.3153267e-06 1.4290323e-38
-1.0445031 -1.3587277 -3.2170399e-06 7.3756504e-39
-0.90010583 -1.3565812 -3.4614004e-06 7.3756504e-39
-0.69886994 -1.35664 -3.6141653e-06 7.3756504e-39
-0.50093341 -1.3552963 -3.5415048e-06 7.3756504e-39
-0.29846111 -1.3557899 -3.844018e-06 7.3756504e-39
-0.098262712 -1.3554153 -3.9537749e-06 7.3756504e-39
0.098926768 -1.3552343 -3.9622059e-06 7.3756504e-39
0.29868925 -1.355945 -3.7534539e-06 7.3756504e-39
0.4990834 -1.3556066 -3.0500667e-06 1.0418106e-38
0.698066 -1.3554409 -3.4829548e-06 1.4290323e-38
0.9017294 -1.3568137 -3.7090474e-06 1.4290323e-38
1.0657518 -1.3561585 -3.9464744e-06 1.4290323e-38
-1.2389547 -2.3289635 3.8743019e-07 1.4290323e-38
-0.92437065 -2.2067158 1.3754918e-07 1.4290323e-38
-0.72450078 -2.2067153 4.7683716e-07 1.4290323e-38
-1.4336534 -2.1063356 3.1789145e-07 1.4290323e-38
-1.3601066 -2.0812387 2.8099333e-07 1.3183975e-38
-1.0840011 -2.0512049 7.7944537e-07 7.3756504e-39
-0.84933382 -2.0921614 3.5762787e-07 7.3756504e-39
-0.48262024 -2.0384979 0.0051567317 8.1197231e-39
-0.30033743 -2.0389576 0.0079484694 7.9349703e-39
-0.12541795 -2.03878 0.0079812473 7.9353304e-39
0.12246872 -2.0389261 0.0079497453 8.027526e-39
0.29991445 -2.0389297 0.0079470295 8.0278862e-39
0.48215565 -2.0385556 0.0051547135 8.4895874e-39
-1.2929881 -1.8748226 6.8247317e-07 8.0210198e-39
-1.0976573 -1.8988314 1.4271055e-06 7.3756504e-39
-0.97263575 -1.9235466 6.4074993e-07 7.3756504e-39
-0.6630671 -1.961725 3.7193297e-07 7.3756504e-39
-0.47925758 -1.8962938 0.0078153778 7.8431362e-39
-0.30168733 -1.8915179 0.024100944 6.5502281e-39
-0.12456664 -1.8889512 0.034692496 5.6271858e-39
0.12315831 -1.8892529 0.034654364 6.5502281e-39
0.30183738 -1.8915509 0.024080789 7.5661863e-39
0.48010269 -1.8957335 0.0077421381 8.4892286e-39
0.63135725 -1.8009605 2.6077032e-07 1.4290323e-38
0.9532339 -1.9723372 5.6766329e-08 1.4290323e-38
1.0418925 -1.8660684 4.7683716e-07 1.4290323e-38
-1.2383645 -1.676057 5.9604645e-07 7.3756504e-39
-1.1312957 -1.6733634 1.7642975e-07 7.3756504e-39
-0.66201538 -1.7015687 5.9604645e-08 7.3756504e-39
-0.47930422 -1.6960424 0.0078085284 7.8431348e-39
-0.29794815 -1.6927274 0.023580704 6.4580311e-39
-0.089746393 -1.7032876 0.044542942 5.3502374e-39
0.089837983 -1.7023669 0.04433959 6.0885269e-39
0.29788265 -1.6927861 0.023586469 7.3814349e-39
0.47935095 -1.6960728 0.0078033498 8.3973918e-39
0.95052433 -1.655388 3.3113693e-08 1.4290323e-38
1.0955487 -1.6948653 8.9838885e-08 1.4290323e-38
1.2428186 -1.6369362 8.5830692e-08 1.4290323e-38
-1.0668236 -1.5030917 2.5010576e-07 7.3756504e-39
-0.93582499 -1.483348 4.5760984e-07 7.3756504e-39
-0.70986992 -1.4849474 2.6149135e-07 7.3756504e-39
-0.47537705 -1.5498744 0.0048575331 7.9349703e-39
-0.30134395 -1.5553681 0.0074911001 7.750579e-39
-0.10081298 -1.5540708 0.0074383682 7.7509377e-39
0.1001747 -1.5583881 0.0076779067 7.8431348e-39
0.30004394 -1.5601339 0.0077662896 7.9353318e-39
0.48258537 -1.5455481 0.0043979501 8.7647309e-39
0.70013607 -1.4738797 6.4951001e-07 1.4290323e-38
0.8857283 -1.4963735 7.7954837e-07 1.4290323e-38
1.0798771 -1.4773334 6.0476907e-07 1.4290323e-38
-1.0532669 -1.3642768 6.6416607e-07 7.3756504e-39
-0.89794141 -1.3419502 6.0579993e-07 7.3756504e-39
-0.71242231 -1.3390411 5.9477827e-07 7.3756504e-39
-0.48845959 -1.3551108 6.1881678e-07 7.3756504e-39
-0.31785569 -1.348976 7.5904688e-07 7.3756504e-39
-0.13072096 -1.350675 1.1410032e-06 7.3756504e-39
0.1364681 -1.3567878 6.4902838e-07 7.3756504e-39
0.33291826 -1.3383954 6.6706474e-07 7.3756504e-39
0.51527959 -1.3497648 5.0102454e-07 1.1340062e-38
0.71256059 -1.3541032 4.7239459e-07 1.4290323e-38
0.88816386 -1.3448273 7.0073668e-07 1.4290323e-38
1.0694929 -1.364025 7.3161777e-07 1.4290323e-38
-0.021339929 -1.7792203 0.30332446 4.5186705e-39
0.020060636 -1.7792212 0.30118555 5.7193829e-39
-0.021431111 -1.7792202 0.41923869 4.5186691e-39
0.020111693 -1.7792202 0.41923851 5.7190213e-39
-0.85759276 -2.2296612 0.77470165 8.1088588e-39
-0.69991857 -2.2299149 0.77470267 8.2006915e-39
-0.49956971 -2.2298169 0.77470273 8.2925256e-39
-0.30005917 -2.2297661 0.77470267 8.2003285e-39
-0.15618283 -2.229697 0.77470118 8.2006901e-39
0.16713496 -2.2297668 0.774701 8.2010488e-39
0.30014205 -2.2299082 0.77470297 8.2006929e-39
0.44672394 -2.2307391 0.77470183 8.2010516e-39
0.71450341 -2.2303045 0.7747035 8.3847212e-39
0.8568477 -2.2300768 0.77470344 8.2003285e-39
-0.85730988 -2.0994277 0.77469641 7.831909e-39
-0.70006669 -2.0989652 0.77470267 7.8315446e-39
-0.50003886 -2.0990086 0.77470279 7.9237389e-39
-0.30001116 -2.0990174 0.77470309 7.9233787e-39
-0.15188096 -2.0963898 0.77469903 7.9233787e-39
0.16456051 -2.0969594 0.77470285 7.8319062e-39
0.29996732 -2.0990467 0.77470315 7.8319076e-39
0.43201444 -2.1098957 0.77470309 7.831546e-39
0.76212198 -2.1680987 0.77470219 8.6613067e-39
0.85912114 -2.1015258 0.77469802 8.0159345e-39
-0.87397462 -1.9653019 0.77469885 8.0159387e-39
-0.66353524 -1.9750479 0.77469945 8.1081301e-39
-0.49648312 -1.901413 0.77470595 8.015573e-39
-0.30417278 -1.9041661 0.77470565 8.0152128e-39
-0.14317782 -1.9030519 0.77469516 8.0155715e-39
0.15857729 -1.8967824 0.77469701 7.8315432e-39
0.30880487 -1.9053626 0.77470553 7.8315446e-39
0.41337118 -1.9363997 0.77470142 7.831546e-39
0.77951527 -1.8489436 0.77470207 8.1996013e-39
0.85803872 -1.8976438 0.77469748 8.0152128e-39
-0.88108879 -1.6508223 0.77494961 7.7400763e-39
-0.71873438 -1.7510985 0.79880285 1.5673243e-39
-0.48743775 -1.6884071 0.77620214 7.7397105e-39
-0.31720331 -1.6759052 0.77982408 1.1796685e-38
-0.13085914 -1.6667377 0.78294909 1.3642047e-38
0.154314 -1.6931394 0.77469826 8.0155758e-39
0.30752799 -1.6964639 0.77490103 7.7397147e-39
0.54138237 -1.6627785 0.77656406 8.4772798e-39
0.70701337 -1.6816527 0.77546459 8.3843583e-39
0.85720193 -1.6948435 0.77470315 8.0152128e-39
-0.85581815 -1.4961088 0.77491301 7.7397133e-39
-0.69753009 -1.4913938 0.7772705 6.9106757e-39
-0.50219798 -1.4957684 0.77502096 7.831546e-39
-0.29961523 -1.4939853 0.77482873 8.0155744e-39
-0.10912195 -1.485237 0.77519685 7.8319048e-39
0.10699798 -1.4765273 0.77536625 7.5560409e-39
0.31336957 -1.4899329 0.7753908 7.5556836e-39
0.49877486 -1.4943058 0.77542627 7.7397119e-39
0.70003301 -1.4934701 0.77468771 7.9233801e-39
0.85726869 -1.4934882 0.77470672 8.0155744e-39
-0.83876914 -1.3583691 0.76570702 5.2515243e-39
-0.70008326 -1.3566804 0.76536149 5.2515229e-39
-0.50000048 -1.3566413 0.76536465 5.3437186e-39
-0.30004594 -1.3566501 0.76535898 5.5277469e-39
-0.1002846 -1.3566525 0.76538444 5.7121368e-39
0.099864379 -1.3566588 0.76537335 5.8043338e-39
0.3001996 -1.3566581 0.76536584 5.8968909e-39
0.5001536 -1.3566632 0.76537687 6.0809207e-39
0.70004368 -1.3566529 0.76536798 6.2653105e-39
0.85691917 -1.3566822 0.76533449 6.3571446e-39
0.59149134 -2.010138 0.84785461 1.8253284e-38
0.6082117 -2.0092797 0.84819269 1.8806097e-38
-0.80707836 -1.8063263 0.83289683 1.3459833e-38
-0.7002064 -1.8231354 0.83288801 1.3368722e-38
-0.59451187 -1.8074726 0.83288842 1.3921173e-38
0.58305269 -1.9217577 0.82648325 1.9729865e-38
0.65990615 -1.8882031 0.84905696 2.028304e-38
-0.8232367 -1.6939479 0.83236033 1.3183972e-38
-0.69939846 -1.6949829 0.83359253 7.6522359e-39
-0.56932563 -1.677621 0.82635206 1.0971637e-38
-0.25201151 -1.680636 0.81460673 2.2034395e-38
-0.15155898 -1.6869195 0.81498969 1.5212279e-38
0.19356108 -1.6669078 0.84215796 4.3291939e-39
0.28631267 -1.6371886 0.87452441 8.5665803e-39
0.5523451 -1.715122 0.8360461 1.9176692e-38
0.65451854 -1.7343382 0.83797657 2.0651821e-38
-0.80864453 -1.5919065 0.82174546 7.0994222e-39
-0.69307679 -1.5648227 0.82343948 8.0217387e-39
-0.5908373 -1.5909706 0.81848121 7.1916179e-39
-0.23994242 -1.5507281 0.8187862 1.2169822e-38
-0.044907428 -1.4899327 0.89513969 1.2216156e-39
0.058041114 -1.4766244 0.8983041 8.5643859e-40
0.33314624 -1.5458227 0.88441986 6.5411912e-39
0.42921966 -1.5676293 0.9031449 8.3851178e-39
0.16789129 -1.3981071 0.83511788 8.3048094e-40
0.21485496 -1.3991684 0.83481419 9.2555764e-41
-0.010202337 -1.6079187 1.0874671 3.8175154e-39
0.019075545 -1.6076747 1.0875504 1.7045871e-39
0.381468 -1.6277626 1.0049409 1.8429035e-38
0.43119869 -1.6315423 1.0050005 1.603197e-38
-0.030229842 -1.5020626 1.0540618 4.9198188e-40
0.044125028 -1.4984907 1.0553095 8.6653214e-40
0.38344756 -1.5815408 1.0039959 1.4101607e-38
0.42830214 -1.5790305 1.0044572 1.824751e-38
