# .PCD v0.7 - Point Cloud Data file format
VERSION 0.7
FIELDS x y z rgb
SIZE 4 4 4 4
TYPE F F F F
COUNT 1 1 1 1
WIDTH 1000
HEIGHT 1
VIEWPOINT 0 0 0 1 0 0 0
POINTS 1000
DATA ascii
0.55453438 -1.9750954 0.00041375955 9.3186278e-39
0.9287864 -1.9723375 0 1.4290323e-38
0.9754591 -1.9723376 1.0837208e-07 1.4290323e-38
1.0021292 -1.9723372 2.3841858e-07 1.4290323e-38
-1.286665 -1.9063274 0 7.3756504e-39
-1.1711104 -1.9455535 1.5497208e-06 7.3756504e-39
-1.1292855 -1.9455537 1.6821755e-06 7.3756504e-39
-0.65395772 -1.9192781 1.4901161e-06 7.3756504e-39
-0.6430552 -1.919278 1.5497208e-06 7.3756504e-39
-0.55457538 -1.9263873 0.00041643472 8.3970316e-39
-0.52465779 -1.9242688 0.0033565315 8.2126404e-39
-0.47408834 -1.9249125 0.0083234943 7.8431348e-39
-0.42428917 -1.9249932 0.013214787 7.3817937e-39
-0.37481442 -1.9248677 0.018074235 7.0119294e-39
-0.32512295 -1.9247905 0.022954933 6.6424238e-39
-0.27562708 -1.9250808 0.027373606 6.2732783e-39
-0.22595957 -1.924726 0.029869642 6.0885255e-39
-0.17506529 -1.9271911 0.029903984 6.0885269e-39
-0.12472825 -1.9263862 0.030061349 6.0885269e-39
-0.075060695 -1.9274521 0.029851206 6.0885269e-39
-0.049481049 -1.9183517 0.031638801 5.9041343e-39
0.045909937 -1.9269499 0.029948315 6.0888871e-39
0.074167162 -1.9269507 0.029947801 6.0888871e-39
0.12490183 -1.9264483 0.030045748 6.0888871e-39
0.17486279 -1.9274412 0.029849978 6.2732783e-39
0.22618808 -1.9245098 0.029894577 6.8275367e-39
0.27588439 -1.9254102 0.027342536 7.4736292e-39
0.32505348 -1.9246386 0.022955164 7.7509391e-39
0.37469697 -1.9247851 0.018078875 7.9356919e-39
0.42442837 -1.9251534 0.013194078 8.2122802e-39
0.47416851 -1.9249566 0.0083084404 8.3973932e-39
0.52442628 -1.9244791 0.00337194 8.6739814e-39
0.55422026 -1.924849 0.00044545761 9.0427626e-39
-1.3151004 -1.8934954 8.3446503e-07 7.3756504e-39
-1.287019 -1.8934952 9.1393787e-07 7.3756504e-39
-0.55390382 -1.8771565 0.00048343092 8.3973918e-39
-0.52502418 -1.8740973 0.0033199748 8.2126404e-39
-0.47486052 -1.8746932 0.0082470644 7.8431348e-39
-0.42449462 -1.8750746 0.013194042 7.3814349e-39
-0.37481743 -1.8749017 0.018073333 7.0119294e-39
-0.32497129 -1.8748692 0.022969253 6.6424238e-39
-0.27493215 -1.8748018 0.027884122 6.1810827e-39
-0.2250075 -1.8747375 0.032787737 5.8115771e-39
-0.17579935 -1.8745296 0.037241507 5.4420729e-39
-0.12608641 -1.8739065 0.039812088 5.1654846e-39
-0.075609386 -1.8762418 0.039911866 5.1654846e-39
-0.048271272 -1.8765332 0.039854188 5.2573215e-39
0.047553215 -1.8765351 0.039852489 5.2576802e-39
0.075235881 -1.8765354 0.03985212 5.4424344e-39
0.12497878 -1.8743818 0.039799787 6.2732797e-39
0.17583357 -1.8741701 0.037263107 7.0119294e-39
0.22531655 -1.8745089 0.032752771 7.2892379e-39
0.27526072 -1.8749797 0.027846718 7.5658262e-39
0.32489622 -1.8751605 0.022971338 7.750579e-39
0.37470832 -1.8750143 0.018078636 7.9356919e-39
0.42462629 -1.8749549 0.013175503 8.2122802e-39
0.47496179 -1.8749843 0.0082313558 8.3973918e-39
0.52535403 -1.8741748 0.0032816925 8.6739814e-39
0.55444956 -1.877224 0.00042374432 9.1349582e-39
-1.3119633 -1.8311003 0 7.3756504e-39
-1.2908562 -1.8311003 0 7.3756504e-39
-1.2217557 -1.800959 1.5497208e-06 7.3756504e-39
-1.0594029 -1.8433492 1.0728836e-06 7.3756504e-39
-1.0254763 -1.8433493 1.2516975e-06 7.3756504e-39
-0.98518878 -1.8433492 1.3113022e-06 7.3756504e-39
-0.55487585 -1.8246856 0.00038733747 8.3966701e-39
-0.52507108 -1.8246222 0.0033147943 8.2126404e-39
-0.47546205 -1.8246548 0.008187403 7.8431348e-39
-0.42548716 -1.8248477 0.013095959 7.3814349e-39
-0.37490264 -1.824891 0.0180644 7.0119294e-39
-0.32467625 -1.8248762 0.022997668 6.5505883e-39
-0.27481383 -1.8250837 0.027895164 6.1810827e-39
-0.22496772 -1.8245845 0.032791104 5.8112184e-39
-0.17454311 -1.8244103 0.037743788 5.3498773e-39
-0.12395293 -1.8246781 0.042712793 4.9803717e-39
-0.073919721 -1.8244287 0.047224384 4.519032e-39
-0.047214042 -1.8399874 0.047033746 4.6112262e-39
0.04716875 -1.8399884 0.047032911 5.8115771e-39
0.076226346 -1.824635 0.04704028 6.5502281e-39
0.12551937 -1.8242617 0.042556345 6.8275367e-39
0.17506453 -1.8245201 0.037689246 7.104125e-39
0.22508538 -1.8247846 0.032776009 7.2892379e-39
0.27505973 -1.8247938 0.027867347 7.4739907e-39
0.32551563 -1.8249553 0.022911379 7.750579e-39
0.37569508 -1.8250598 0.017982561 7.9356919e-39
0.42571107 -1.8249611 0.013069801 8.2122802e-39
0.47554657 -1.824903 0.0081748078 8.3973918e-39
0.52463341 -1.8247432 0.0033533343 8.5821445e-39
0.56267142 -1.8167473 0.00028551507 1.0791949e-38
0.62300992 -1.8009607 2.3841858e-07 1.4290323e-38
0.65639937 -1.8009605 3.2782555e-07 1.4290323e-38
1.0617741 -1.8129339 5.9604645e-07 1.4290323e-38
-0.55420136 -1.7739978 0.00045300275 8.3970316e-39
-0.5258134 -1.7746608 0.0032413078 8.2126404e-39
-0.47555354 -1.7747632 0.0081778597 7.8431348e-39
-0.42486727 -1.7745878 0.01315627 7.3814349e-39
-0.37458289 -1.7746824 0.018095242 7.0119294e-39
-0.32439181 -1.7748172 0.02302503 6.5505883e-39
-0.2745679 -1.7751034 0.027918762 6.1810827e-39
-0.22488585 -1.7744937 0.032798551 5.7193829e-39
-0.17503978 -1.7746716 0.037694439 5.3498773e-39
-0.12586495 -1.7747643 0.042524077 4.8881761e-39
-0.075927332 -1.773873 0.046954069 4.2417234e-39
-0.025554778 -1.7621689 0.047394738 4.0573308e-39
0.026070215 -1.7614644 0.047315042 4.9803731e-39
0.075174913 -1.7736026 0.047002174 6.4580325e-39
0.1250549 -1.774428 0.042602226 6.8275367e-39
0.17467031 -1.7744914 0.037728809 7.0122895e-39
0.2246199 -1.7748369 0.032822594 7.2888778e-39
0.27434617 -1.7750819 0.027938271 7.4739907e-39
0.32411522 -1.7746738 0.023049789 7.750579e-39
0.37408331 -1.7748069 0.018141771 7.9356905e-39
0.42453107 -1.7747327 0.013186597 8.2122802e-39
0.47487736 -1.7748126 0.0082414076 8.397033e-39
0.52555913 -1.7747887 0.0032632581 8.5821445e-39
0.55432034 -1.7740134 0.00043824315 8.9505669e-39
0.98385757 -1.7890948 0 1.4290323e-38
1.023329 -1.7890948 9.9341078e-09 1.4290323e-38
1.0731877 -1.7890948 1.1920929e-07 1.4290323e-38
1.1043493 -1.7890944 1.1920929e-07 1.4290323e-38
-1.17408 -1.7256948 1.1920929e-07 7.3756504e-39
-1.1477257 -1.7256951 1.1920929e-07 7.3756504e-39
-0.70085001 -1.7369922 1.3113022e-06 7.3756504e-39
-0.66065681 -1.7313318 0 7.3756504e-39
-0.63830793 -1.7313318 0 7.3756504e-39
-0.55448955 -1.7239355 0.00042415262 8.3044759e-39
-0.52488559 -1.7246614 0.0033318794 8.2126404e-39
-0.47501564 -1.7247279 0.0082300976 7.842776e-39
-0.42508739 -1.7245562 0.013134088 7.3814349e-39
-0.3751924 -1.7248205 0.01803479 7.0119294e-39
-0.32522854 -1.7245256 0.022942265 6.5505883e-39
-0.27503335 -1.7249438 0.027872475 6.180724e-39
-0.22450696 -1.724739 0.032834999 5.7193815e-39
-0.1746363 -1.7228076 0.03714231 5.1651245e-39
-0.12435217 -1.7232254 0.039493978 4.795979e-39
-0.074961387 -1.7231373 0.03978575 4.7956203e-39
-0.024710774 -1.7239517 0.039946087 4.7037848e-39
0.025439668 -1.7231375 0.039785933 4.795979e-39
0.074784927 -1.7231356 0.039786085 5.0732876e-39
0.12435927 -1.7233829 0.039509024 5.9963299e-39
0.17464663 -1.7225888 0.037139144 6.9193736e-39
0.22446756 -1.7247397 0.032838404 7.2888778e-39
0.27516422 -1.7250098 0.027858783 7.4739907e-39
0.32532045 -1.7245361 0.022932282 7.750579e-39
0.37547269 -1.7248421 0.018006163 7.9353318e-39
0.42516491 -1.7245656 0.013125194 8.1204447e-39
0.47520116 -1.7246259 0.00821047 8.397033e-39
0.52502775 -1.7245388 0.0033163377 8.5821445e-39
0.55435842 -1.7250532 0.00043534636 9.1345967e-39
-1.2383643 -1.676057 5.9604645e-07 7.3756504e-39
-0.67080063 -1.6652873 0 7.3756504e-39
-0.55435306 -1.6756966 0.00043697489 8.3970316e-39
-0.52486932 -1.6747545 0.0033328712 8.2122802e-39
-0.47461379 -1.6747659 0.0082690073 7.7509391e-39
-0.42446563 -1.674193 0.01319457 7.3814335e-39
-0.37453482 -1.674986 0.018098814 6.9200925e-39
-0.3248651 -1.6746347 0.022977315 6.5502281e-39
-0.27483609 -1.6729752 0.027320638 6.0885255e-39
-0.22497343 -1.6731856 0.029610345 5.7193815e-39
-0.17506716 -1.6730057 0.029938066 5.6271858e-39
-0.12523179 -1.6724854 0.029835505 5.7190227e-39
-0.074654736 -1.6729401 0.029925186 5.7190227e-39
-0.025341114 -1.67294 0.029925324 5.7193815e-39
0.023972543 -1.67294 0.029925486 5.7193815e-39
0.075258717 -1.6729393 0.029925574 5.7193829e-39
0.12530525 -1.6724749 0.029834488 5.7193829e-39
0.17458805 -1.6733932 0.030015098 5.9037755e-39
0.22467273 -1.6728494 0.029560532 6.5502281e-39
0.27483255 -1.6729603 0.027315883 7.2892379e-39
0.32492954 -1.6744494 0.022971537 7.750579e-39
0.3745712 -1.6750209 0.018095568 7.9353318e-39
0.42467216 -1.6743141 0.013174461 8.1204433e-39
0.47455031 -1.6749011 0.0082752388 8.397033e-39
0.52475679 -1.6746956 0.003343808 8.5817858e-39
0.55440599 -1.6751313 0.00043154391 9.0427612e-39
1.2406949 -1.6599365 1.1920929e-07 1.4290323e-38
1.2683476 -1.6599367 1.1920929e-07 1.4290323e-38
-1.1116546 -1.6127919 1.1920929e-07 7.3756504e-39
-1.0942138 -1.6127919 1.1920929e-07 7.3756504e-39
-1.0252327 -1.628307 5.9604645e-07 7.3756504e-39
-0.55429482 -1.6263846 0.00044212653 8.3966715e-39
-0.52474326 -1.6247399 0.0033446681 8.2122802e-39
-0.47530091 -1.6247532 0.0082009407 7.7509391e-39
-0.42575735 -1.6244682 0.01306711 7.3814335e-39
-0.37496641 -1.6241705 0.017594086 6.9197337e-39
-0.32497048 -1.6242049 0.019964907 6.6424252e-39
-0.27521941 -1.6240357 0.020318273 6.5505883e-39
-0.22518022 -1.6240982 0.020330695 6.5505883e-39
-0.17496647 -1.6241599 0.020342955 6.5505883e-39
-0.12492889 -1.6241297 0.020337081 6.6424238e-39
-0.07525041 -1.6240053 0.02031298 6.6424252e-39
-0.025942584 -1.6237229 0.020257583 6.6427839e-39
0.023938028 -1.6240972 0.020331327 6.6427839e-39
0.074326769 -1.6240987 0.020331392 6.6427839e-39
0.12471555 -1.6240983 0.02033159 6.6427853e-39
0.17510428 -1.6240983 0.02033169 6.6427853e-39
0.22513999 -1.6238189 0.020276917 6.7349795e-39
0.27481639 -1.6239439 0.020301618 6.7349809e-39
0.32456836 -1.6242133 0.019993626 7.1966822e-39
0.37475216 -1.6240011 0.017599259 7.7509391e-39
0.42540365 -1.6247361 0.013103471 8.1204433e-39
0.47533765 -1.6245637 0.00819878 8.397033e-39
0.52519351 -1.6247431 0.0033017595 8.5817858e-39
0.55447233 -1.624907 0.0004258535 9.0427612e-39
0.8938272 -1.6231139 0 1.4290323e-38
0.92496395 -1.6231138 0 1.4290323e-38
0.97361499 -1.6231138 9.1699455e-08 1.4290323e-38
1.0086436 -1.6231139 1.1920929e-07 1.4290323e-38
1.0840592 -1.6493036 1.1920929e-07 1.4290323e-38
1.1253616 -1.6493036 1.3754918e-07 1.4290323e-38
1.1735134 -1.6180735 5.9604645e-08 1.4290323e-38
1.2228965 -1.6076634 4.3348834e-08 1.4290323e-38
-1.117819 -1.552636 1.1920929e-07 7.3756504e-39
-1.0163094 -1.5641018 7.9472858e-07 7.3756504e-39
-0.98205304 -1.5624554 3.7087335e-07 7.3756504e-39
-0.55438066 -1.5731667 0.00043310362 8.3966715e-39
-0.52503836 -1.5748827 0.0033151265 8.2122802e-39
-0.47425899 -1.5738695 0.0078097335 7.7509391e-39
-0.42428312 -1.5739228 0.010151924 7.5658262e-39
-0.37496796 -1.5747241 0.010631519 7.4736306e-39
-0.32501343 -1.5747397 0.010634406 7.4739893e-39
-0.27505291 -1.5748575 0.010657905 7.4739907e-39
-0.22509237 -1.57479 0.010644889 7.4739907e-39
-0.17497736 -1.5746846 0.010624222 7.5658262e-39
-0.12486827 -1.574578 0.010603686 7.5658262e-39
-0.075064294 -1.5748442 0.010655899 7.5658276e-39
-0.025580527 -1.5748447 0.010656021 7.5661863e-39
0.023903217 -1.5748447 0.010656125 7.5661863e-39
0.074360274 -1.5743777 0.010564438 7.5661877e-39
0.12508078 -1.5748971 0.010666706 7.5661877e-39
0.17519984 -1.5750035 0.01068789 7.5661877e-39
0.22500522 -1.5748435 0.010656653 7.658382e-39
0.27496463 -1.5747008 0.010628464 7.658382e-39
0.32523534 -1.5746837 0.010625452 7.6583834e-39
0.37519467 -1.5748026 0.010649019 7.6583834e-39
0.42443842 -1.574036 0.010171938 7.9353318e-39
0.4743773 -1.5736333 0.0077879746 8.304836e-39
0.52494925 -1.5747614 0.0033266384 8.5817858e-39
0.5543291 -1.5746231 0.00044082559 9.1345967e-39
0.83557606 -1.577338 1.1920929e-07 1.4290323e-38
0.87568188 -1.5773379 1.5588907e-07 1.4290323e-38
0.90814841 -1.5773376 3.5762787e-07 1.4290323e-38
-1.1207887 -1.5236531 1.1920929e-07 7.3756504e-39
-1.0089324 -1.5276254 1.1920929e-07 7.3756504e-39
-0.98588359 -1.5265344 1.1920929e-07 7.3756504e-39
-0.71218872 -1.5428954 8.3446503e-07 7.3756504e-39
-0.69712842 -1.5428954 8.3446503e-07 7.3756504e-39
-0.55436373 -1.5354747 0.00041517845 8.3970316e-39
-0.52423352 -1.5349823 0.0022181827 8.2126404e-39
-0.47496492 -1.5354156 0.002908974 8.2122802e-39
-0.42486733 -1.5354573 0.0029176564 8.2122802e-39
-0.3750332 -1.535283 0.0028834229 8.2126404e-39
-0.324938 -1.5354142 0.0029093553 8.2126404e-39
-0.27510345 -1.5355438 0.0029351711 8.2126404e-39
-0.22475041 -1.5351549 0.0028587654 8.2126404e-39
-0.1749121 -1.5354135 0.0029095896 8.3044773e-39
-0.12532696 -1.5356736 0.002960942 8.3044773e-39
-0.074736632 -1.5351543 0.0028591182 8.304836e-39
-0.024883833 -1.5354129 0.0029099786 8.304836e-39
0.023875352 -1.5354124 0.0029100834 8.304836e-39
0.074509904 -1.5354127 0.0029101991 8.3048374e-39
0.12514442 -1.5354129 0.0029103532 8.3048374e-39
0.17472392 -1.5351517 0.0028592956 8.3051961e-39
0.22532527 -1.5356708 0.0029612654 8.3970316e-39
0.27517256 -1.5354123 0.0029107213 8.397033e-39
0.3247374 -1.5351516 0.0028596495 8.397033e-39
0.37482962 -1.5354553 0.0029195098 8.397033e-39
0.42570972 -1.5340481 0.0026724455 8.3048346e-39
0.47499996 -1.5332693 0.0025314633 8.3044745e-39
0.52403998 -1.5329226 0.0019448523 8.9498439e-39
0.56447035 -1.5272124 0.00022064315 1.1435875e-38
0.62392056 -1.5188905 6.1438635e-07 1.4290323e-38
0.67423594 -1.5188905 7.1525574e-07 1.4290323e-38
0.72455126 -1.5188904 7.9778522e-07 1.4290323e-38
0.77486652 -1.5188903 8.855547e-07 1.4290323e-38
0.82518166 -1.5188903 1.0728836e-06 1.4290323e-38
0.87549692 -1.5188903 1.2431826e-06 1.4290323e-38
0.92581236 -1.5188901 1.3663218e-06 1.4290323e-38
0.97426391 -1.5188898 1.5497208e-06 1.4290323e-38
1.017125 -1.5188897 1.5497208e-06 1.4290323e-38
-1.1310725 -1.4768811 0 7.3756504e-39
-0.93139082 -1.4632081 1.5497208e-06 7.3756504e-39
-0.8547008 -1.4768808 5.9604645e-07 7.3756504e-39
-0.81460631 -1.4723059 2.682209e-07 7.3756504e-39
-0.79268634 -1.4723057 3.5762787e-07 7.3756504e-39
-0.71305782 -1.4632093 0 7.3756504e-39
-0.67848825 -1.4632093 0 7.3756504e-39
-0.45214111 -1.4953655 3.5762787e-07 7.3756504e-39
-0.42302331 -1.4685683 6.4571697e-07 7.3756504e-39
-0.39647332 -1.4632087 7.1525574e-07 7.3756504e-39
-0.055177569 -1.4860866 2.3841858e-07 7.3756504e-39
-0.049664885 -1.4860865 3.5762787e-07 7.3756504e-39
0.42614397 -1.4541842 1.1920929e-07 7.3756504e-39
0.4942106 -1.4768813 0 7.3756504e-39
0.5253253 -1.4768811 0 1.3091779e-38
0.57474262 -1.4768811 1.8732888e-07 1.4290323e-38
0.62599033 -1.4768811 2.7247839e-07 1.4290323e-38
0.67540753 -1.476881 3.5762787e-07 1.4290323e-38
0.72482491 -1.476881 5.4495678e-07 1.4290323e-38
0.7760725 -1.4768809 6.8119596e-07 1.4290323e-38
0.82966888 -1.4739969 6.085948e-07 1.4290323e-38
0.87504566 -1.4723151 5.7050158e-07 1.4290323e-38
0.92261928 -1.4713219 6.3751054e-07 1.4290323e-38
0.97545159 -1.4677485 3.5762787e-07 1.4290323e-38
1.0279938 -1.470171 3.1555399e-07 1.4290323e-38
1.0751914 -1.4746121 3.5762787e-07 1.4290323e-38
1.1213596 -1.4703221 5.9604645e-07 1.4290323e-38
1.1686939 -1.4677479 8.3446503e-07 1.4290323e-38
-1.0745524 -1.4319277 7.4931552e-07 7.3756504e-39
-1.0144156 -1.4496983 0 7.3756504e-39
-0.97336614 -1.4434543 2.503395e-07 7.3756504e-39
-0.94010329 -1.4407783 3.5762787e-07 7.3756504e-39
-0.88076568 -1.4275284 8.3446503e-07 7.3756504e-39
-0.52256268 -1.4160539 8.6697668e-08 7.3756504e-39
-0.47567344 -1.4101009 1.3623919e-07 7.3756504e-39
-0.42590603 -1.4101009 3.5762787e-07 7.3756504e-39
-0.37510738 -1.4184662 1.9550323e-07 7.3756504e-39
-0.3487789 -1.4275289 1.1920929e-07 7.3756504e-39
-0.21429637 -1.4138209 4.7683716e-07 7.3756504e-39
-0.17351447 -1.4101003 9.5367432e-07 7.3756504e-39
-0.12374716 -1.4101002 1.0728836e-06 7.3756504e-39
-0.06522806 -1.4138137 2.5544847e-07 7.3756504e-39
-0.038548373 -1.4144326 1.7881393e-07 7.3756504e-39
0.1339764 -1.4100997 1.695421e-06 7.3756504e-39
0.15530525 -1.4100996 1.7881393e-06 7.3756504e-39
0.4357678 -1.4275291 0 7.3756504e-39
0.47338301 -1.4275287 1.0217939e-07 7.3756504e-39
0.52353662 -1.4275286 2.7247839e-07 1.2722997e-38
0.5736903 -1.4275285 3.5762787e-07 1.4290323e-38
0.62384385 -1.4275285 5.4495678e-07 1.4290323e-38
0.67399752 -1.4275284 6.8119596e-07 1.4290323e-38
0.72415113 -1.4275284 8.3446503e-07 1.4290323e-38
0.77430469 -1.4275284 8.5149492e-07 1.4290323e-38
0.8244583 -1.4275283 1.0728836e-06 1.4290323e-38
0.85490865 -1.427528 1.0728836e-06 1.4290323e-38
-1.0863786 -1.3802387 1.0728836e-06 7.3756504e-39
-0.82441628 -1.366465 9.5994847e-07 7.3756504e-39
-0.7810654 -1.3511621 1.7881393e-07 7.3756504e-39
-0.60403293 -1.3676838 0 7.3756504e-39
-0.57438791 -1.3676835 1.1920929e-07 7.3756504e-39
-0.52730465 -1.3676834 1.6505902e-07 7.3756504e-39
-0.46195358 -1.3718529 4.4277735e-07 7.3756504e-39
-0.41934267 -1.3783205 1.1298968e-06 7.3756504e-39
-0.37991655 -1.3736227 1.1165937e-06 7.3756504e-39
-0.33306906 -1.3635291 1.3113022e-06 7.3756504e-39
-0.29786241 -1.3972051 3.5762787e-07 7.3756504e-39
-0.21947907 -1.3593913 4.2265111e-07 7.3756504e-39
-0.17604756 -1.3593915 5.5347169e-07 7.3756504e-39
-0.13245979 -1.3641018 9.8347664e-07 7.3756504e-39
-0.082432039 -1.3635284 1.9192696e-06 7.3756504e-39
0.091490343 -1.3593909 1.3113022e-06 7.3756504e-39
0.12329745 -1.3698151 6.5565109e-07 7.3756504e-39
0.17457752 -1.3802396 9.5367433e-08 7.3756504e-39
0.26623729 -1.3844565 3.5762787e-07 7.3756504e-39
0.42361191 -1.3802391 8.3446503e-07 7.3756504e-39
0.57654321 -1.3886901 1.1920929e-07 1.4290323e-38
0.62407541 -1.3886901 2.2138867e-07 1.4290323e-38
0.67869467 -1.3831195 3.1789145e-07 1.4290323e-38
0.72609204 -1.3719795 3.1079566e-07 1.4290323e-38
0.77084655 -1.3626958 3.4438239e-07 1.4290323e-38
0.82716197 -1.3584157 2.2706531e-07 1.4290323e-38
0.87486255 -1.3635299 1.0217939e-07 1.4290323e-38
0.92533797 -1.3635297 1.9868214e-07 1.4290323e-38
0.97581351 -1.3635294 3.5762787e-07 1.4290323e-38
1.0267459 -1.3708422 2.9206277e-07 1.4290323e-38
1.0755069 -1.3716953 3.9644019e-07 1.4290323e-38
1.1206188 -1.3728749 5.3293564e-07 1.4290323e-38
-1.0091183 -1.3429939 1.1920929e-07 7.3756504e-39
-0.97354531 -1.3352158 5.8721611e-07 7.3756504e-39
-0.9245407 -1.3349167 7.867813e-07 7.3756504e-39
-0.87179518 -1.3424083 2.3245812e-07 7.3756504e-39
-0.83227015 -1.3360865 3.0653817e-07 7.3756504e-39
-0.77178043 -1.3298484 4.6128812e-07 7.3756504e-39
-0.72747082 -1.3344659 6.6023608e-07 7.3756504e-39
-0.67460793 -1.3429934 9.1961454e-07 7.3756504e-39
-0.62418014 -1.342814 7.4836942e-07 7.3756504e-39
-0.59021646 -1.3374128 6.1988828e-07 7.3756504e-39
-0.47853777 -1.3228374 1.0993746e-06 7.3756504e-39
-0.42222726 -1.3148795 4.6766721e-07 7.3756504e-39
-0.3745707 -1.3148797 5.9604645e-07 7.3756504e-39
-0.31378102 -1.3180573 2.1457672e-07 7.3756504e-39
-0.27414367 -1.3296642 3.851377e-07 7.3756504e-39
-0.22755402 -1.3389322 5.9604645e-07 7.3756504e-39
-0.11586358 -1.3148789 1.3113022e-06 7.3756504e-39
-0.098843373 -1.3148789 1.3113022e-06 7.3756504e-39
0.0957307 -1.330855 8.3446503e-07 7.3756504e-39
0.12488004 -1.3308547 8.855547e-07 7.3756504e-39
0.15574405 -1.3308548 1.0728836e-06 7.3756504e-39
0.28556928 -1.3268394 1.1920929e-07 7.3756504e-39
0.32727566 -1.3352684 5.364418e-07 7.3756504e-39
0.37441084 -1.3470695 1.2261527e-06 7.3756504e-39
0.41605529 -1.3426263 1.2278557e-06 7.3756504e-39
0.47622946 -1.3346297 2.3841858e-07 7.3756504e-39
0.52455026 -1.3389324 4.342624e-07 1.2999584e-38
0.5744611 -1.3389322 5.8809917e-07 1.4290323e-38
0.62437171 -1.3389322 6.4713612e-07 1.4290323e-38
0.67428261 -1.338932 7.9472858e-07 1.4290323e-38
0.72772175 -1.3322262 5.6624413e-07 1.4290323e-38
0.77473676 -1.3308851 5.9207281e-07 1.4290323e-38
0.82533759 -1.3311625 7.6047303e-07 1.4290323e-38
0.87502873 -1.3306074 8.4268635e-07 1.4290323e-38
0.92132246 -1.3349082 1.2814999e-06 1.4290323e-38
0.97546798 -1.3389314 1.6433852e-06 1.4290323e-38
1.0253786 -1.3389314 1.7007192e-06 1.4290323e-38
1.0752892 -1.3389313 1.847744e-06 1.4290323e-38
1.1114314 -1.3389312 1.9584384e-06 1.4290323e-38
-0.046509974 -1.8148135 0.050283581 4.2417234e-39
0.046913624 -1.8148625 0.05024007 6.4580325e-39
-0.022132438 -1.7792474 0.070440464 4.3342792e-39
0.024241431 -1.7796971 0.06960623 5.8119386e-39
-0.020336509 -1.7792203 0.12394112 4.4264762e-39
0.022 -1.7792202 0.12394122 5.8115785e-39
-0.02143408 -1.7792202 0.17507386 4.4264734e-39
0.020377278 -1.7792203 0.17585295 5.8115771e-39
-0.021382593 -1.7792205 0.22588062 4.4264734e-39
0.020028062 -1.7792203 0.22588083 5.7197416e-39
-0.020913353 -1.7792205 0.27519646 4.4264748e-39
0.020049388 -1.7792203 0.27519667 5.7197416e-39
-0.021167604 -1.7792203 0.32641897 4.610506e-39
0.020071292 -1.7792203 0.32583362 5.7193829e-39
-0.021867555 -1.7792203 0.37536412 4.7030603e-39
0.020092715 -1.7792203 0.37536407 5.7193829e-39
-0.021431116 -1.7792202 0.41923866 4.5186691e-39
0.020111693 -1.7792202 0.41923881 5.7190213e-39
-0.86243933 -1.3428013 0.74423289 2.3034404e-39
-0.82492095 -1.342802 0.74436998 2.3952759e-39
-0.77514338 -1.342802 0.74436957 2.4874715e-39
-0.72501534 -1.342802 0.7443459 2.4878303e-39
-0.67523694 -1.3428019 0.74439359 2.5796658e-39
-0.62510908 -1.3428019 0.74436986 2.6718614e-39
-0.574983 -1.3428018 0.74444097 2.7640556e-39
-0.52485353 -1.3428016 0.74436963 2.8558925e-39
-0.47472066 -1.3428016 0.74429846 2.9480867e-39
-0.42494455 -1.3428016 0.7443459 2.9484469e-39
-0.37517059 -1.3428015 0.74439383 3.0402838e-39
-0.32539871 -1.3428015 0.74444133 3.132478e-39
-0.27526385 -1.3428016 0.74437022 3.2246736e-39
-0.22478509 -1.3428015 0.74437082 3.2250324e-39
-0.17430626 -1.3428007 0.7443707 3.3168693e-39
-0.12451217 -1.3427993 0.74427432 3.4090635e-39
-0.075468414 -1.3427988 0.74446732 3.5012591e-39
-0.025674354 -1.3427987 0.74437094 3.5012605e-39
0.024804374 -1.3427987 0.74437064 3.5934547e-39
0.07528308 -1.3427987 0.74437094 3.6856504e-39
0.12576179 -1.3427987 0.74437135 3.7774859e-39
0.1755542 -1.3427987 0.74446744 3.777846e-39
0.22460119 -1.3427987 0.74427468 3.8700402e-39
0.27439353 -1.3427984 0.74437165 3.9618771e-39
0.32487217 -1.3427984 0.74437177 4.0540728e-39
0.37535083 -1.3427982 0.74437201 4.0544315e-39
0.4254843 -1.3427982 0.74444324 4.1462684e-39
0.47525686 -1.3427981 0.74439543 4.2384626e-39
0.52503139 -1.3427976 0.74434859 4.3306583e-39
0.57480848 -1.3427969 0.74430132 4.331017e-39
0.62493962 -1.3427969 0.74437231 4.4228539e-39
0.67506766 -1.3427969 0.74444383 4.5150481e-39
0.7248438 -1.3427969 0.74439645 4.606885e-39
0.77497184 -1.3427968 0.74437267 4.6072437e-39
0.82510102 -1.3427969 0.74434876 4.6994394e-39
0.87522823 -1.3427968 0.74437296 4.7916336e-39
0.90747833 -1.3427969 0.74437261 5.0682219e-39
-0.90834284 -2.2529569 0.77470034 9.9542231e-39
-0.87669855 -2.2529566 0.77470034 9.4006864e-39
-0.82606763 -2.2529566 0.77470034 9.4003249e-39
-0.77543658 -2.2529566 0.77470058 9.400685e-39
-0.72480565 -2.2529562 0.77470058 9.4925205e-39
-0.67417473 -2.2529562 0.77470058 9.4921548e-39
-0.62354374 -2.2529562 0.77470064 9.4921576e-39
-0.57502252 -2.2529559 0.7747007 9.4925191e-39
-0.52650118 -2.2529557 0.77470082 9.4925163e-39
-0.47587028 -2.2529557 0.77470082 9.5843504e-39
-0.42523935 -2.2529552 0.77470094 9.5843532e-39
-0.37460849 -2.2529547 0.77470106 9.4921562e-39
-0.32397759 -2.2529547 0.77470106 9.4917946e-39
-0.27334666 -2.2529547 0.77470112 9.4921534e-39
-0.22482544 -2.2529545 0.77470118 9.4921548e-39
-0.17630418 -2.2529545 0.77470118 9.4921562e-39
-0.13200217 -2.2529545 0.77470124 9.5843518e-39
0.14013861 -2.2529538 0.77470148 8.6688905e-39
0.1738925 -2.2529533 0.77470154 9.5843518e-39
0.22452331 -2.2529533 0.77470154 9.4925177e-39
0.27515411 -2.2529531 0.7747016 9.4925177e-39
0.32578489 -2.2529528 0.77470165 9.4006864e-39
0.3764157 -2.2529528 0.77470183 9.400685e-39
0.42493686 -2.2529526 0.77470201 9.4003249e-39
0.47345802 -2.2529526 0.77470201 9.4928806e-39
0.50088304 -2.2529526 0.77470189 9.4925191e-39
0.63378888 -2.2529523 0.77470207 9.8609443e-39
0.6759811 -2.2529521 0.77470213 9.4925177e-39
0.72661185 -2.2529519 0.77470213 9.5843504e-39
0.77513307 -2.2529519 0.77470213 9.5843532e-39
0.82365412 -2.2529511 0.77470237 9.4921576e-39
0.87428474 -2.2529509 0.77470249 9.4921548e-39
0.90803868 -2.2529511 0.77470243 9.8612988e-39
-0.9066115 -2.2241535 0.77470016 8.1092189e-39
-0.87372339 -2.2237868 0.77470016 7.7400749e-39
-0.82470614 -2.2240319 0.77470022 7.7397119e-39
-0.77515084 -2.2241521 0.77470022 7.831546e-39
-0.7250672 -2.2241521 0.77470022 7.8319062e-39
-0.67498356 -2.2241521 0.77470022 8.0159373e-39
-0.62490004 -2.2241521 0.77470034 7.9241032e-39
-0.57481617 -2.2241521 0.77470034 7.9241032e-39
-0.52473253 -2.2241518 0.7747004 7.9237389e-39
-0.47464871 -2.2241518 0.77470046 8.015573e-39
-0.42456517 -2.2241518 0.77470046 7.9237403e-39
-0.37500733 -2.2237861 0.77470058 7.8315432e-39
-0.32544819 -2.2241518 0.77470058 7.9233787e-39
-0.27536458 -2.2241516 0.77470058 7.9233801e-39
-0.225281 -2.2241516 0.77470058 7.9237389e-39
-0.17468484 -2.223803 0.77470058 7.9237417e-39
-0.1303376 -2.2241516 0.7747007 7.9237403e-39
0.14256261 -2.2230048 0.7747013 7.9237403e-39
0.17537414 -2.2241514 0.77470154 7.9237403e-39
0.22545767 -2.2241511 0.77470154 8.0159373e-39
0.27501774 -2.2240303 0.77470154 7.9241032e-39
0.32457909 -2.2241509 0.7747016 7.7400749e-39
0.37466255 -2.2241507 0.77470165 7.7397133e-39
0.42474613 -2.2241504 0.77470177 7.831546e-39
0.47030351 -2.2251761 0.77470195 8.0162988e-39
0.64043695 -2.2262905 0.77470207 8.4772798e-39
0.67464119 -2.2238011 0.77470177 7.9237403e-39
0.72523373 -2.2241495 0.77470225 8.015573e-39
0.77531713 -2.2241495 0.77470225 7.9237389e-39
0.82540059 -2.2241492 0.77470237 7.8315446e-39
0.87548393 -2.2241488 0.77470237 7.9233787e-39
0.90678602 -2.224148 0.77470237 7.9233787e-39
-0.90727311 -2.173774 0.77470005 8.4776413e-39
-0.87452209 -2.1737738 0.77470011 7.8322691e-39
-0.82539564 -2.173774 0.77470016 7.8319076e-39
-0.77545011 -2.1732426 0.77470016 7.8315446e-39
-0.72510624 -2.1737709 0.77470016 7.8311845e-39
-0.67515415 -2.1739521 0.77470016 7.9237417e-39
-0.62521964 -2.1734133 0.77470022 7.9237403e-39
-0.57527441 -2.1735904 0.77470022 7.9237403e-39
-0.52532458 -2.1741338 0.77470022 7.9237389e-39
-0.47498548 -2.1734176 0.77470022 7.9237389e-39
-0.42503259 -2.1737719 0.77470028 7.9241018e-39
-0.37508756 -2.1737702 0.77470028 7.9237417e-39
-0.32474172 -2.1734138 0.77470028 7.9237417e-39
-0.2747947 -2.1737704 0.77470034 8.0155758e-39
-0.22484754 -2.1735904 0.7747004 8.0159373e-39
-0.17491072 -2.1734123 0.77470046 8.0159359e-39
-0.12947293 -2.1737707 0.77470052 7.8319062e-39
0.14115736 -2.1727283 0.77470118 7.8319062e-39
0.17469519 -2.173589 0.77470118 7.9241046e-39
0.22463574 -2.1737688 0.77470112 7.9241032e-39
0.27458665 -2.17395 0.77470118 7.8319076e-39
0.32452399 -2.1734114 0.77470118 7.8322691e-39
0.37487629 -2.1739476 0.77470124 7.831909e-39
0.42523468 -2.1737683 0.77470124 7.831546e-39
0.46398622 -2.1754386 0.77470189 7.8315446e-39
0.68673772 -2.1958406 0.77470201 1.1243512e-38
0.73078418 -2.1844029 0.77470201 8.9378936e-39
0.77558321 -2.1741397 0.7747016 7.9241004e-39
0.82477856 -2.1741312 0.77470195 7.9241018e-39
0.87473011 -2.1739485 0.77470273 7.9237417e-39
0.90698093 -2.1719339 0.77470213 8.1084931e-39
-0.90791082 -2.125216 0.77469993 8.5698397e-39
-0.87525356 -2.124893 0.77470011 7.7397133e-39
-0.82507873 -2.1255257 0.77469999 7.831909e-39
-0.77484173 -2.1248925 0.77470011 7.7393504e-39
-0.72514397 -2.1252139 0.77470011 7.8315446e-39
-0.67493188 -2.1252177 0.77470011 7.8315446e-39
-0.62522572 -2.1251063 0.77470016 7.8315446e-39
-0.57550591 -2.1250041 0.77470016 7.9237431e-39
-0.52530879 -2.1254268 0.77470022 7.831546e-39
-0.47508964 -2.1250033 0.77470022 7.9233787e-39
-0.4248758 -2.1254265 0.77470022 7.9237403e-39
-0.37467346 -2.1250031 0.77470022 8.0159345e-39
-0.32495484 -2.1251061 0.77470034 8.0155744e-39
-0.27525017 -2.1252165 0.77470034 8.107407e-39
-0.2250381 -2.1252127 0.77470034 8.0152128e-39
-0.17533648 -2.1248918 0.77470046 8.015573e-39
-0.12863673 -2.1252139 0.77470052 7.9233773e-39
0.14050084 -2.1252131 0.77470112 7.9237431e-39
0.17515527 -2.1248899 0.77470064 7.9241046e-39
0.22485115 -2.1252112 0.77470094 7.924106e-39
0.27506316 -2.1252146 0.77470136 7.8322719e-39
0.32476971 -2.1251035 0.77470136 7.7397133e-39
0.374989 -2.1253157 0.77470112 7.8319076e-39
0.4251897 -2.125102 0.77470148 7.8315474e-39
0.45893282 -2.1263876 0.7747013 7.6471562e-39
0.78695726 -2.1294956 0.77470195 8.7538639e-39
0.82488453 -2.1255207 0.77470165 8.0155758e-39
0.87507021 -2.1248868 0.77470177 8.0155758e-39
0.90772158 -2.1252108 0.77470207 8.6616668e-39
-0.90746093 -2.0803139 0.77469969 8.201053e-39
-0.87500829 -2.078512 0.77469993 7.7397119e-39
-0.82452732 -2.0780263 0.77470005 7.831909e-39
-0.77486479 -2.0786753 0.77470005 7.831546e-39
-0.72517914 -2.0785089 0.77470005 7.8315446e-39
-0.67510885 -2.0783532 0.77470011 7.8315432e-39
-0.62463486 -2.0785124 0.77470011 7.831546e-39
-0.57455885 -2.0783489 0.77470011 7.9237431e-39
-0.52448863 -2.078352 0.77470016 7.8315446e-39
-0.47480598 -2.0785096 0.77470016 7.9237389e-39
-0.42512143 -2.0783529 0.77470016 8.0152128e-39
-0.37505126 -2.0783484 0.77470022 8.015573e-39
-0.32497716 -2.078512 0.77470022 7.9233773e-39
-0.27489325 -2.0786722 0.77470022 7.9230158e-39
-0.22522572 -2.0783489 0.77470022 8.0152128e-39
-0.17514181 -2.078512 0.77470022 8.01521e-39
-0.12661271 -2.0776477 0.77470028 7.9233759e-39
0.13913739 -2.0773785 0.7747007 7.831546e-39
0.17497893 -2.0786695 0.77470046 7.8315446e-39
0.2250596 -2.0785065 0.77470046 7.8319076e-39
0.27513048 -2.0783513 0.77470046 7.8322691e-39
0.32560351 -2.0785105 0.77470046 7.7397119e-39
0.37528661 -2.0781798 0.77470058 7.7397133e-39
0.42496681 -2.0788267 0.77470082 7.831909e-39
0.45437405 -2.0848958 0.77470118 7.6471562e-39
0.79812819 -2.0955393 0.77470177 1.1888882e-38
0.82705456 -2.0790336 0.77470148 8.1996041e-39
0.87563252 -2.0785069 0.77470136 8.015573e-39
0.90717673 -2.0785067 0.77470201 7.9233759e-39
-0.9072479 -2.0285618 0.77469927 7.8315432e-39
-0.87593776 -2.0282662 0.77469987 7.8315474e-39
-0.82533836 -2.0285614 0.77469987 7.831546e-39
-0.77510703 -2.0285618 0.77469993 7.9233787e-39
-0.72487575 -2.0285618 0.77469993 7.9233801e-39
-0.67503113 -2.0282545 0.77469999 7.9233787e-39
-0.62519222 -2.0285614 0.77470005 7.8311817e-39
-0.57496077 -2.0285606 0.77470005 7.831546e-39
-0.52511919 -2.0284083 0.77470011 7.9237431e-39
-0.47527406 -2.0285604 0.77470011 8.0155744e-39
-0.42504272 -2.0285594 0.77470011 8.0148499e-39
-0.37519941 -2.0282536 0.77470011 7.9230158e-39
-0.32535914 -2.0285594 0.77470016 7.8311803e-39
-0.27512798 -2.0285609 0.77470016 7.7386245e-39
-0.22489664 -2.0285599 0.77470016 7.8311803e-39
-0.17505172 -2.0285611 0.77470022 7.9233759e-39
-0.12520686 -2.028559 0.77470022 7.8315418e-39
-0.09922526 -2.0187576 0.77470034 5.3523674e-39
0.13791822 -2.0285592 0.77470046 7.8315446e-39
0.17462562 -2.0285587 0.7747004 7.8315432e-39
0.22485684 -2.0285583 0.7747004 7.8315446e-39
0.2750788 -2.0279562 0.7747004 7.8315446e-39
0.32530683 -2.028559 0.77470046 7.831546e-39
0.37515208 -2.0284064 0.77470046 7.831546e-39
0.42349884 -2.0293598 0.77470046 7.8315446e-39
0.83066684 -2.0287609 0.77470165 8.2917983e-39
0.87434584 -2.0282505 0.77470136 7.9230172e-39
0.90681016 -2.0285563 0.77470195 8.0155744e-39
-0.90609074 -1.9759148 0.77469939 7.8311831e-39
-0.87448031 -1.9765276 0.77469969 7.8315446e-39
-0.8275184 -1.9871932 0.77469975 8.1084945e-39
-0.77607274 -1.9951024 0.77469945 8.3850813e-39
-0.72482276 -1.994706 0.77469957 8.2928843e-39
-0.67188072 -1.9852673 0.77469981 8.1081315e-39
-0.62508297 -1.9759132 0.77469999 7.9233787e-39
-0.57530522 -1.9759123 0.77470005 7.8319062e-39
-0.5248993 -1.9755623 0.77470005 7.9237417e-39
-0.4751271 -1.9759134 0.77470005 8.015573e-39
-0.42534432 -1.9757944 0.77470005 8.0148485e-39
-0.37494394 -1.9759161 0.77470011 7.9230158e-39
-0.32485521 -1.9758523 0.77470005 7.8311817e-39
-0.27507445 -1.9757347 0.77470011 7.8311803e-39
-0.22499058 -1.9757979 0.77470011 8.0152128e-39
-0.17489578 -1.9759711 0.77470011 8.0152114e-39
-0.12480538 -1.9756768 0.77470016 8.0148499e-39
-0.097457103 -1.9725829 0.77470011 6.9128337e-39
0.13626024 -1.9749745 0.77470022 7.7400693e-39
0.1754263 -1.9756171 0.77470022 7.8311803e-39
0.22519505 -1.9757347 0.77470028 7.9237403e-39
0.27497104 -1.9758519 0.77470028 7.8315474e-39
0.32506466 -1.9756782 0.77470028 7.8311845e-39
0.37515289 -1.9757341 0.77470034 7.831546e-39
0.41756687 -1.9777027 0.77470046 7.831546e-39
0.82832432 -1.9746704 0.77470112 8.0148499e-39
0.87541622 -1.9753902 0.77470094 7.8311803e-39
0.90793568 -1.9776084 0.77470171 8.4769168e-39
-0.90683377 -1.9254267 0.77469903 7.8315446e-39
-0.88761765 -1.9335957 0.77469915 8.569474e-39
-0.61376965 -1.9307588 0.77469957 8.1999628e-39
-0.5748964 -1.9255611 0.77469987 8.0155758e-39
-0.52531165 -1.9251568 0.77469987 8.0155744e-39
-0.47572237 -1.9254235 0.77469993 8.1074084e-39
-0.42539158 -1.9252954 0.77469999 8.1070441e-39
-0.37506837 -1.9252902 0.77469993 8.1070469e-39
-0.3251082 -1.9255564 0.77469993 7.9237403e-39
-0.27515671 -1.9252907 0.77470005 7.8311803e-39
-0.22518943 -1.9250277 0.77470005 7.9233801e-39
-0.17487064 -1.9258205 0.77470005 8.0155758e-39
-0.12491906 -1.925022 0.77470011 8.0152128e-39
-0.096420541 -1.9254242 0.77469987 8.01521e-39
0.13414681 -1.9247962 0.77470016 7.6478722e-39
0.1748253 -1.9258248 0.77470016 7.8311789e-39
0.22478914 -1.9250264 0.77470016 7.8315446e-39
0.27512002 -1.9255571 0.77470022 7.7397091e-39
0.32506886 -1.9252868 0.77470022 7.7393476e-39
0.37503326 -1.9251585 0.77470022 7.831546e-39
0.41284871 -1.9267441 0.77470034 7.8315474e-39
0.79334122 -1.9178314 0.77470118 8.6602193e-39
0.82501507 -1.9254186 0.77470106 8.1070455e-39
0.87459123 -1.9251499 0.77470112 8.015573e-39
0.90642339 -1.9254205 0.7747013 7.9233815e-39
-0.90867102 -1.8932719 0.77469879 9.1233723e-39
-0.60358143 -1.8987267 0.77469921 9.6758216e-39
-0.5725596 -1.8784869 0.77469957 8.015573e-39
-0.52491719 -1.8768283 0.77469975 8.1074084e-39
-0.4747802 -1.8769338 0.77469993 8.1074084e-39
-0.42495787 -1.8774036 0.77469993 8.0152114e-39
-0.37512553 -1.8768281 0.77469993 8.0155715e-39
-0.32499617 -1.877038 0.77469993 7.9237389e-39
-0.27485982 -1.8769337 0.77469993 7.9233787e-39
-0.22503658 -1.876982 0.77469999 7.9237403e-39
-0.1752031 -1.8771417 0.77470005 8.1077686e-39
-0.12506898 -1.877038 0.77470005 8.0152128e-39
-0.095216006 -1.8749293 0.77469981 8.0152114e-39
0.13314794 -1.8764744 0.77470011 7.7400693e-39
0.17481057 -1.8775074 0.77470011 7.9233759e-39
0.22497606 -1.890548 0.77470016 8.1070441e-39
0.27507001 -1.8771911 0.77470016 7.831546e-39
0.32490194 -1.8770365 0.77470022 7.8315446e-39
0.3750352 -1.8768264 0.77470022 7.8319076e-39
0.40693721 -1.8798308 0.77470034 7.9233801e-39
0.78445864 -1.8736594 0.77470118 8.107407e-39
0.82500386 -1.876824 0.77470094 8.0155715e-39
0.87543607 -1.8770841 0.774701 7.9237375e-39
0.90805298 -1.8770843 0.77470136 8.4772784e-39
-0.5638904 -1.8282952 0.77469879 8.0152114e-39
-0.52524304 -1.8267007 0.77469933 8.1077672e-39
-0.47474882 -1.8262686 0.77469927 8.1077672e-39
-0.42453912 -1.8265555 0.77469933 8.01521e-39
-0.37492171 -1.8265558 0.77469951 8.01521e-39
-0.32501236 -1.8264107 0.77469987 8.0148499e-39
-0.27864456 -1.8317275 0.77469987 8.3843541e-39
-0.22591276 -1.842236 0.77469957 8.7535023e-39
-0.17079256 -1.8387076 0.77469981 8.3839953e-39
-0.12404307 -1.8272529 0.77469993 8.0152114e-39
-0.093029447 -1.823568 0.77469939 7.6478722e-39
0.13186696 -1.8265541 0.77470005 7.9237389e-39
0.17441839 -1.8257703 0.77470005 7.9233815e-39
0.24898751 -1.822497 0.77469999 7.1865396e-39
0.27509621 -1.826504 0.77470022 7.831546e-39
0.3250103 -1.8265537 0.77470016 7.7397091e-39
0.37462759 -1.8265547 0.77470028 7.7393504e-39
0.40316305 -1.8365424 0.77470028 8.0130604e-39
0.74599528 -1.8114839 0.77470088 8.9375335e-39
0.77675456 -1.8254207 0.7747004 8.1070469e-39
0.82499665 -1.8263037 0.7747004 8.1070455e-39
0.87431598 -1.8265517 0.7747007 8.0148499e-39
0.90621251 -1.8265519 0.77470112 8.0148485e-39
-0.91044593 -1.7586298 0.77469832 9.7698291e-39
-0.71357113 -1.7530842 0.79869324 2.1204967e-39
-0.55595124 -1.7817949 0.77469891 8.107407e-39
-0.52462101 -1.7740694 0.77469879 8.1992411e-39
-0.47468063 -1.7743003 0.77469885 8.1992411e-39
-0.42473716 -1.7740673 0.77469885 8.1074056e-39
-0.37479955 -1.7743797 0.77469885 8.0148485e-39
-0.32814664 -1.7762222 0.77469927 8.2917969e-39
-0.29640007 -1.7980107 0.77469915 1.1981074e-38
-0.11207266 -1.7804773 0.77469969 8.3839953e-39
-0.090996079 -1.7732437 0.77469963 7.464204e-39
0.13103282 -1.7742999 0.77470005 7.9233787e-39
0.17503291 -1.7738338 0.77469939 8.015573e-39
0.23108472 -1.774295 0.77469981 7.278731e-39
0.27491221 -1.7742209 0.77469945 7.7397119e-39
0.32485279 -1.7743006 0.77469945 7.7397133e-39
0.37115699 -1.7751207 0.77469999 7.7397147e-39
0.69241434 -1.7521582 0.77470064 9.0297249e-39
0.72962463 -1.7688739 0.77581859 8.7527779e-39
0.77505469 -1.7742177 0.774701 8.1992411e-39
0.82499367 -1.7743007 0.77470106 8.1070441e-39
0.87518305 -1.774295 0.77470106 8.0148485e-39
0.90753138 -1.7729937 0.77470082 8.476191e-39
-0.9064098 -1.7243757 0.7746982 7.9244661e-39
-0.89241362 -1.7148929 0.7746982 7.7404378e-39
-0.72733974 -1.7477889 0.79898548 6.4536941e-40
-0.55038756 -1.7454528 0.79634643 7.557134e-39
-0.52746636 -1.7244613 0.77676928 7.8319062e-39
-0.4751806 -1.7243749 0.77469909 8.1074042e-39
-0.42501047 -1.7241187 0.77469915 8.0152114e-39
-0.37512648 -1.7245002 0.77469915 7.9233759e-39
-0.33282572 -1.7236993 0.77469909 8.015573e-39
-0.20225742 -1.7002419 0.79986286 1.9914256e-38
-0.19729002 -1.7003618 0.79980326 1.8531322e-38
-0.1054194 -1.7228771 0.77469915 8.4769126e-39
-0.08961615 -1.7243737 0.77469897 7.9233787e-39
0.13023379 -1.7243716 0.77469993 8.0155758e-39
0.17532843 -1.724031 0.77469975 8.0159359e-39
0.23240866 -1.7231268 0.77469969 6.9106757e-39
0.27510372 -1.7242008 0.77469993 7.7400735e-39
0.32470337 -1.7243718 0.77469993 7.8322719e-39
0.36507082 -1.7252573 0.77470011 7.8326334e-39
0.49949241 -1.7095718 0.78400266 8.4783952e-39
0.52266765 -1.7167011 0.78021002 9.2159364e-39
0.57272756 -1.7151296 0.77470022 8.2921612e-39
0.62768281 -1.7147009 0.7765907 9.0300906e-39
0.67557198 -1.7221344 0.77888858 9.8602114e-39
0.72420025 -1.7248542 0.77543491 8.4761896e-39
0.77481669 -1.7244133 0.77470052 8.0152114e-39
0.8249886 -1.7243289 0.77470064 8.01521e-39
0.87486511 -1.7240288 0.77470058 8.0152128e-39
0.9067505 -1.7251238 0.77470088 8.015573e-39
-0.90718633 -1.6767313 0.77469814 7.9244689e-39
-0.88172621 -1.6733348 0.77469736 7.7400749e-39
-0.55073947 -1.652841 0.78827369 5.8086834e-39
-0.53057289 -1.6765866 0.77860731 7.279824e-39
-0.4747169 -1.6767294 0.77469862 8.1074084e-39
-0.42487699 -1.6765944 0.77469856 8.0155715e-39
-0.37480521 -1.6767298 0.77469856 7.9237389e-39
-0.32682759 -1.675012 0.77469891 7.9233787e-39
-0.26195484 -1.6608397 0.79363823 2.1573052e-38
-0.22405247 -1.6744152 0.79549807 2.3048907e-38
-0.17611942 -1.6745909 0.79542834 2.1758169e-38
-0.12212225 -1.6685385 0.78284615 1.1982164e-38
-0.088780172 -1.6767297 0.77469891 7.9233787e-39
0.12900275 -1.6763247 0.77469969 8.0159345e-39
0.17481646 -1.6767286 0.77469921 7.9237389e-39
0.22824964 -1.6724972 0.77469945 7.3709308e-39
0.27472603 -1.676594 0.77469915 7.8319076e-39
0.32503632 -1.6767939 0.77469921 7.8322719e-39
0.361047 -1.679173 0.77469999 7.6482422e-39
0.49396652 -1.671845 0.77470011 7.6475191e-39
0.52671617 -1.678382 0.77659893 8.6613081e-39
0.57518494 -1.6796451 0.7792536 9.3995976e-39
0.62456977 -1.6794225 0.77801621 9.1230093e-39
0.67507672 -1.6767273 0.774701 7.9233801e-39
0.72491354 -1.6765909 0.77470112 8.1077686e-39
0.77498394 -1.6765252 0.774701 8.015573e-39
0.82505846 -1.6767933 0.77470112 7.9233787e-39
0.87513554 -1.6767246 0.77470118 7.9237389e-39
0.9074508 -1.6753404 0.77470064 8.2003285e-39
-0.9071756 -1.6228173 0.77469796 7.9244675e-39
-0.87501258 -1.6247721 0.77469689 7.7400749e-39
-0.83696896 -1.6121823 0.77671629 6.9106771e-39
-0.56427068 -1.6211083 0.78400892 5.9916243e-39
-0.52522904 -1.6240555 0.77469695 7.9233801e-39
-0.4752582 -1.6242218 0.77469707 8.015573e-39
-0.4250859 -1.6242511 0.77469808 7.9237403e-39
-0.37492129 -1.6242743 0.77469802 7.9233787e-39
-0.32495332 -1.6241097 0.77469826 7.9233773e-39
-0.27397662 -1.6216334 0.78189659 1.3272541e-38
-0.2258932 -1.6228967 0.79396564 2.2864155e-38
-0.17426041 -1.6230342 0.79276794 2.2034391e-38
-0.12567888 -1.6236491 0.77880603 1.0690699e-38
-0.087170139 -1.6235838 0.77469915 7.8315446e-39
0.1279844 -1.6239555 0.77469891 7.9237417e-39
0.17512713 -1.624332 0.77469873 7.9237403e-39
0.22705433 -1.6217149 0.77469975 7.5553207e-39
0.27506146 -1.6243274 0.77469873 7.9241032e-39
0.32522887 -1.6241914 0.77469873 7.7400749e-39
0.35771149 -1.620097 0.7797336 6.5422716e-39
0.48691034 -1.621935 0.77470011 7.831909e-39
0.52550495 -1.6240785 0.77469891 7.9237417e-39
0.57506728 -1.6242994 0.77469891 7.9241004e-39
0.62483531 -1.6243293 0.77470005 7.9241032e-39
0.67499989 -1.6241373 0.77470052 7.9237403e-39
0.72497064 -1.6241874 0.77470136 8.015573e-39
0.77493912 -1.624245 0.77470148 8.0155758e-39
0.82510364 -1.6242174 0.77470148 7.8315446e-39
0.87527126 -1.6239171 0.77470154 7.9233773e-39
0.90733516 -1.6255338 0.7747004 8.10777e-39
-0.90728104 -1.5744417 0.77469778 8.3854471e-39
-0.87447983 -1.5742664 0.77469689 7.924106e-39
-0.8232854 -1.5760425 0.7767728 7.0950684e-39
-0.77644271 -1.5630207 0.78368199 4.3317429e-39
-0.74616486 -1.5505458 0.78788811 2.7665892e-39
-0.65332174 -1.5506607 0.78743011 3.0435362e-39
-0.62290639 -1.5642648 0.78518772 4.6090542e-39
-0.57975489 -1.5796115 0.77923399 6.7270132e-39
-0.52496445 -1.5745016 0.77469707 7.9237389e-39
-0.47532821 -1.5742043 0.77469707 7.9237389e-39
-0.42545557 -1.5744394 0.77469701 7.9237417e-39
-0.37513882 -1.5741524 0.77469718 7.8319048e-39
-0.32482553 -1.574439 0.77469766 7.9237417e-39
-0.27473193 -1.5742642 0.7746985 7.9237403e-39
-0.22425616 -1.5753744 0.777224 9.8605744e-39
-0.17545642 -1.5745406 0.77694678 9.3070404e-39
-0.1251304 -1.5743232 0.77469856 7.8319062e-39
-0.084203042 -1.5737102 0.77469921 7.7397105e-39
0.097707108 -1.5598854 0.77469903 6.639858e-39
0.12533417 -1.5741439 0.77469862 7.831546e-39
0.17496879 -1.5743818 0.77469867 7.9241032e-39
0.22582586 -1.5758882 0.77469963 7.9241018e-39
0.27482995 -1.5747936 0.77469909 7.8319076e-39
0.32502082 -1.5742626 0.77469903 7.924106e-39
0.37534806 -1.5736649 0.78230208 5.5292155e-39
0.42442387 -1.5632519 0.7845636 6.728123e-39
0.47336885 -1.5747917 0.77677464 7.6475261e-39
0.52493405 -1.57403 0.77469909 7.9233815e-39
0.57502925 -1.5744377 0.77469915 7.9241018e-39
0.62512255 -1.5743209 0.77469915 7.9237417e-39
0.67499006 -1.574261 0.77469933 7.9237389e-39
0.72485393 -1.5744377 0.77469999 8.0155744e-39
0.77494776 -1.5744365 0.77470112 7.9237403e-39
0.82504129 -1.5743793 0.77470118 7.9237417e-39
0.8746767 -1.5741402 0.77470112 7.9237417e-39
0.90724927 -1.5744371 0.77470022 8.3850827e-39
-0.90775537 -1.5279614 0.77469748 8.2014146e-39
-0.87527859 -1.5266365 0.77469671 7.7397133e-39
-0.82521701 -1.5269903 0.77469683 7.8319076e-39
-0.77513742 -1.527014 0.77469683 7.7393504e-39
-0.72390252 -1.5342363 0.78019756 5.529193e-39
-0.67614543 -1.5351176 0.78075343 5.3451633e-39
-0.62492365 -1.5268942 0.77469689 7.8315432e-39
-0.57484818 -1.5268254 0.77469689 7.9237431e-39
-0.52477676 -1.5268439 0.77469689 7.831546e-39
-0.47508162 -1.5268227 0.77469695 7.9233787e-39
-0.42520791 -1.5270575 0.77469695 7.9237417e-39
-0.37513021 -1.526844 0.77469695 8.0159345e-39
-0.32505924 -1.5268219 0.77469695 7.9237389e-39
-0.27498302 -1.5268928 0.77469712 8.1074084e-39
-0.22510482 -1.5267981 0.77469766 8.015573e-39
-0.17502858 -1.5269651 0.77469814 8.0155744e-39
-0.12495984 -1.5269418 0.7746982 7.9233787e-39
-0.076170936 -1.525334 0.7752648 7.7397119e-39
-0.041538496 -1.5109367 0.7746985 7.4638453e-39
0.084716611 -1.5196729 0.77508044 7.3727329e-39
0.12482832 -1.5269853 0.77469826 7.831546e-39
0.17671391 -1.5435117 0.77469873 7.8326334e-39
0.22255714 -1.5452564 0.77469921 7.0957957e-39
0.28338921 -1.5286198 0.77469903 7.6478806e-39
0.32512182 -1.52689 0.77469862 7.7397133e-39
0.37519783 -1.526822 0.77469862 7.8319076e-39
0.42526865 -1.5268431 0.77469862 7.8315474e-39
0.47476712 -1.5269866 0.77469867 7.8315446e-39
0.52464843 -1.526893 0.77469862 7.8315446e-39
0.57491463 -1.5268424 0.77469867 7.8315432e-39
0.6249854 -1.5268202 0.77469867 7.9237417e-39
0.67506111 -1.5268903 0.77469873 7.9237417e-39
0.72513062 -1.5269625 0.77469873 7.9233787e-39
0.7750147 -1.5269116 0.77470016 7.9237403e-39
0.82489246 -1.526821 0.77469981 8.0159345e-39
0.87497002 -1.5270784 0.77470154 7.9237403e-39
0.90678489 -1.5256115 0.77470022 8.0155744e-39
-0.90659118 -1.4744475 0.77469683 7.831909e-39
-0.87493736 -1.4759969 0.77469653 7.7397119e-39
-0.82495129 -1.4758366 0.77469653 7.8319104e-39
-0.77514523 -1.4757982 0.77469653 7.7397105e-39
-0.72532946 -1.4757223 0.77469665 7.8315446e-39
-0.67518824 -1.4758004 0.77469677 7.8311845e-39
-0.62504339 -1.4756428 0.77469677 7.8319062e-39
-0.57506979 -1.4757992 0.77469683 7.9237431e-39
-0.52508903 -1.4758005 0.77469683 7.8315446e-39
-0.47478339 -1.4757222 0.77469683 7.9233787e-39
-0.42480218 -1.4758761 0.77469683 7.9233773e-39
-0.37499484 -1.4756427 0.77469683 8.0155744e-39
-0.32485002 -1.4757597 0.77469683 8.0155715e-39
-0.27487367 -1.4757583 0.77469689 7.9230158e-39
-0.22506116 -1.4757212 0.77469689 8.0152128e-39
-0.17508698 -1.4757191 0.77469742 8.01521e-39
-0.12494045 -1.4757594 0.77469784 8.0152114e-39
-0.074650891 -1.4757496 0.77484041 7.9237403e-39
-0.024541253 -1.4755305 0.77817065 6.4536633e-39
0.025346782 -1.4714241 0.77936041 5.7189863e-39
0.073265806 -1.476808 0.77668869 7.2805359e-39
0.12461326 -1.4755224 0.77469796 7.831546e-39
0.17580792 -1.4687746 0.77469862 7.6475135e-39
0.22502942 -1.4669751 0.77469885 7.5553221e-39
0.2765038 -1.4739128 0.7746982 7.8319104e-39
0.32485068 -1.4757574 0.77469802 7.7397133e-39
0.37482688 -1.4757577 0.77469826 7.7397133e-39
0.42497116 -1.4756413 0.77469832 7.831909e-39
0.47477895 -1.475875 0.77469838 7.8311845e-39
0.52475965 -1.4757174 0.77469832 7.8315432e-39
0.57506543 -1.4757963 0.77469832 7.8315446e-39
0.62504572 -1.4757957 0.77469832 7.8319076e-39
0.67501849 -1.4756385 0.77469838 7.8315446e-39
0.72516358 -1.4757953 0.77469844 7.8315446e-39
0.7753045 -1.4757169 0.77469844 7.9233787e-39
0.82512009 -1.4757929 0.77469844 8.0155715e-39
0.87509042 -1.4757167 0.77469969 8.0155744e-39
0.90748268 -1.4765539 0.77470016 8.3843569e-39
-0.90558696 -1.4345605 0.77469707 7.7393504e-39
-0.87479389 -1.4247359 0.77469647 7.7397105e-39
-0.82504177 -1.4242715 0.77469647 7.831546e-39
-0.77497 -1.4245526 0.77469647 7.9233787e-39
-0.72505659 -1.4244454 0.77469647 7.8315446e-39
-0.67498535 -1.4245194 0.77469647 7.9233787e-39
-0.62507254 -1.4245164 0.77469659 7.8311831e-39
-0.57516181 -1.4244105 0.77469677 7.831546e-39
-0.52508795 -1.4245528 0.77469677 7.8319062e-39
-0.47485644 -1.4243762 0.77469677 8.0155744e-39
-0.42477909 -1.4244803 0.77469677 8.0148499e-39
-0.37486824 -1.4244106 0.77469683 7.9230144e-39
-0.32479781 -1.4245528 0.77469683 7.8311803e-39
-0.27488297 -1.4244823 0.77469683 7.7386245e-39
-0.22497404 -1.4244455 0.77469683 7.8311803e-39
-0.17506075 -1.4245532 0.77469683 7.9233759e-39
-0.1249884 -1.4242698 0.77469701 7.9233759e-39
-0.075079001 -1.4245883 0.77469748 7.9237417e-39
-0.025482563 -1.4246964 0.77469766 7.9233787e-39
0.02521947 -1.4243429 0.77469784 7.7389861e-39
0.075791344 -1.4245862 0.7746979 7.8311817e-39
0.12522003 -1.4242969 0.77469796 7.8315446e-39
0.1749637 -1.4244094 0.7746979 7.8315446e-39
0.22487561 -1.4245489 0.77469796 7.8315446e-39
0.27478862 -1.4244437 0.77469796 7.831546e-39
0.32469752 -1.4244781 0.77469796 7.831546e-39
0.37477386 -1.4244083 0.77469802 7.7397105e-39
0.4250057 -1.4244425 0.77469802 7.8315446e-39
0.47475454 -1.4245863 0.77469826 7.8311831e-39
0.52483124 -1.4244442 0.77469826 7.9237403e-39
0.57506359 -1.4244783 0.77469826 7.8311803e-39
0.62497497 -1.4244069 0.77469826 7.8315446e-39
0.67488587 -1.4245121 0.77469826 7.8319062e-39
0.72479826 -1.4245126 0.77469832 7.9237403e-39
0.77486938 -1.4244431 0.77469832 8.0152114e-39
