# .PCD v0.7 - Point Cloud Data file format
VERSION 0.7
FIELDS x y z rgb
SIZE 4 4 4 4
TYPE F F F F
COUNT 1 1 1 1
WIDTH 948
HEIGHT 1
VIEWPOINT 0 0 0 1 0 0 0
POINTS 948
DATA ascii
-2.325912 -3.975857 -4.7244525e-06 1.4290323e-38
-2.2750986 -3.9769003 -4.3993905e-06 1.4290323e-38
-2.2242541 -3.977948 -5.0067902e-06 1.4290323e-38
-2.1748323 -3.9759068 -4.7326089e-06 1.4290323e-38
-2.1251857 -3.9779475 -4.6993555e-06 1.4290323e-38
-2.0758061 -3.9759064 -4.7922135e-06 1.4290323e-38
-2.023674 -3.9769018 -5.1089696e-06 1.4290323e-38
-1.9741503 -3.976902 -4.9405626e-06 1.4290323e-38
-1.9246271 -3.9769018 -4.9273171e-06 1.4290323e-38
-1.8751036 -3.976902 -4.8809579e-06 1.4290323e-38
-1.82558 -3.9769003 -4.7513417e-06 1.4290323e-38
-1.7874854 -3.9769011 -4.7286353e-06 1.4290323e-38
1.7410794 -3.9744141 -4.4703484e-06 1.3459836e-38
1.7743425 -3.9769008 -4.6425394e-06 1.4290323e-38
1.8238667 -3.9769011 -5.0351732e-06 1.4290323e-38
1.8747864 -3.9758575 -5.000516e-06 1.4290323e-38
1.9240621 -3.9778926 -4.8816205e-06 1.4290323e-38
1.9762456 -3.9769011 -4.8932575e-06 1.4290323e-38
2.0257692 -3.9769011 -4.7153899e-06 1.4290323e-38
2.0752926 -3.9769008 -4.6888986e-06 1.4290323e-38
2.1248157 -3.9769008 -4.6624077e-06 1.4290323e-38
2.1743388 -3.9769011 -4.8024312e-06 1.4290323e-38
2.225183 -3.9758577 -4.9001292e-06 1.4290323e-38
2.2746072 -3.9778926 -4.7445296e-06 1.4290323e-38
2.3254759 -3.9759064 -4.6730042e-06 1.4290323e-38
2.3749428 -3.977948 -4.6177915e-06 1.4290323e-38
2.4245019 -3.9759064 -4.6133996e-06 1.4290323e-38
2.4580619 -3.9918013 -4.0829182e-06 1.4290323e-38
-2.3706851 -3.9286077 -4.4215808e-06 1.4290323e-38
-2.3250911 -3.9284711 -4.227345e-06 1.4290323e-38
-2.2762141 -3.9269731 -3.9063966e-06 1.4290323e-38
-2.2252419 -3.9277227 -4.504408e-06 1.4290323e-38
-2.1742465 -3.928472 -5.0343001e-06 1.4290323e-38
-2.1254172 -3.9269762 -5.0801495e-06 1.4290323e-38
-2.0744197 -3.9277229 -4.4703484e-06 1.4290323e-38
-2.0254028 -3.9277229 -4.3710074e-06 1.4290323e-38
-1.976386 -3.9277244 -4.6917371e-06 1.4290323e-38
-1.9235982 -3.9277234 -4.7257968e-06 1.4290323e-38
-1.8745809 -3.9277229 -4.6690307e-06 1.4290323e-38
-1.8255637 -3.9277236 -4.6491623e-06 1.4290323e-38
-1.7840875 -3.9277234 -4.5597553e-06 1.3459837e-38
1.7413639 -3.9277217 -3.8146973e-06 1.3182888e-38
1.7752987 -3.927721 -3.6656857e-06 1.4290323e-38
1.8243161 -3.9277217 -3.8572721e-06 1.4290323e-38
1.877104 -3.9277227 -4.1127205e-06 1.4290323e-38
1.9261211 -3.9277227 -4.0531158e-06 1.4290323e-38
1.9751383 -3.9277225 -4.036086e-06 1.4290323e-38
2.0241556 -3.927722 -3.9339066e-06 1.4290323e-38
2.0731726 -3.9277217 -3.8317271e-06 1.4290323e-38
2.1259601 -3.9277215 -3.8061823e-06 1.4290323e-38
2.1749773 -3.927721 -3.8444996e-06 1.4290323e-38
2.223995 -3.9277222 -4.2915344e-06 1.4290323e-38
2.2749748 -3.9269731 -4.1906651e-06 1.4290323e-38
2.3238375 -3.9284704 -4.0806258e-06 1.4290323e-38
2.3748169 -3.9277217 -4.0531158e-06 1.4290323e-38
2.4185166 -3.9288025 -4.0133796e-06 1.4290323e-38
-2.3596878 -3.8877826 -5.4665975e-06 1.4290323e-38
-2.3244736 -3.878654 -5.7280063e-06 1.4290323e-38
-2.2746489 -3.880558 -4.661083e-06 1.4290323e-38
-2.2249103 -3.8796086 -4.4226645e-06 1.4290323e-38
-2.1752026 -3.8786519 -4.5239926e-06 1.4290323e-38
-2.1241438 -3.879606 -4.5413062e-06 1.4290323e-38
-2.0742946 -3.88061 -4.2664378e-06 1.4290323e-38
-2.0259349 -3.8786514 -4.4584276e-06 1.4290323e-38
-1.9748459 -3.879606 -4.3199175e-06 1.4290323e-38
-1.9237264 -3.880558 -4.4167041e-06 1.4290323e-38
-1.8754284 -3.8786047 -4.573872e-06 1.4290323e-38
-1.8255477 -3.8796048 -4.4391268e-06 1.4290323e-38
-1.7844906 -3.8796051 -4.3710074e-06 1.3459836e-38
1.7404431 -3.8823333 -4.683222e-06 1.3552392e-38
1.7736475 -3.8786519 -4.839897e-06 1.4290323e-38
1.8247583 -3.879606 -4.6661921e-06 1.4290323e-38
1.8770125 -3.879606 -4.3596542e-06 1.4290323e-38
1.9255339 -3.8796048 -4.2385527e-06 1.4290323e-38
1.9740559 -3.8796041 -4.1269122e-06 1.4290323e-38
2.0263102 -3.8796048 -4.0814989e-06 1.4290323e-38
2.0748322 -3.8796048 -4.0001341e-06 1.4290323e-38
2.1233544 -3.8796053 -3.9112001e-06 1.4290323e-38
2.1756086 -3.8796048 -3.8828171e-06 1.4290323e-38
2.2254243 -3.8786018 -3.8962617e-06 1.4290323e-38
2.2738507 -3.880558 -4.5239926e-06 1.4290323e-38
2.3249075 -3.8796053 -4.4050671e-06 1.4290323e-38
2.3759348 -3.8786507 -4.3034552e-06 1.4290323e-38
2.4086573 -3.8939109 -4.3511391e-06 1.4290323e-38
-2.3204503 -3.825578 -5.4279963e-06 1.4290323e-38
-2.2754319 -3.8230972 -5.3700946e-06 1.4290323e-38
-2.2238033 -3.8230965 -5.0181434e-06 1.4290323e-38
-2.1733456 -3.8240242 -4.3630598e-06 1.4290323e-38
-2.1255233 -3.8221149 -3.8523422e-06 1.4290323e-38
-2.0762937 -3.8230951 -4.5696893e-06 1.4290323e-38
-2.0246663 -3.8230951 -4.8762276e-06 1.4290323e-38
-1.9730381 -3.8230953 -4.9386704e-06 1.4290323e-38
-1.9250978 -3.8230951 -4.8875809e-06 1.4290323e-38
-1.8771573 -3.823096 -4.950024e-06 1.4290323e-38
-1.8255297 -3.8230953 -5.1941192e-06 1.4290323e-38
-1.784965 -3.8230972 -5.443891e-06 1.3459836e-38
1.7404575 -3.8230927 -3.6557515e-06 1.4290323e-38
1.7736471 -3.8230925 -3.5762787e-06 1.4290323e-38
1.8252751 -3.8230922 -3.5762787e-06 1.4290323e-38
1.8769029 -3.8230925 -3.5592489e-06 1.4290323e-38
1.9248441 -3.8230934 -3.9007928e-06 1.4290323e-38
1.9727845 -3.8230937 -3.9736428e-06 1.4290323e-38
2.0244129 -3.8230932 -3.9679662e-06 1.4290323e-38
2.0760405 -3.8230932 -3.9225533e-06 1.4290323e-38
2.1265059 -3.8221614 -3.8862227e-06 1.4290323e-38
2.1743093 -3.8240738 -3.8899875e-06 1.4290323e-38
2.2235491 -3.8230925 -3.7125178e-06 1.4290323e-38
2.2751772 -3.8230925 -3.7919908e-06 1.4290323e-38
2.325603 -3.8221612 -3.9696693e-06 1.4290323e-38
2.3669837 -3.8273897 -3.9247366e-06 1.4290323e-38
-2.3079529 -3.7815568 -4.1127205e-06 1.4290323e-38
-2.2765081 -3.7762952 -4.5941424e-06 1.4290323e-38
-2.2271485 -3.7769971 -4.4788635e-06 1.4290323e-38
-2.1760314 -3.7769964 -4.3937139e-06 1.4290323e-38
-2.1249135 -3.7769964 -4.2915344e-06 1.4290323e-38
-2.0737979 -3.7769992 -5.4495677e-06 1.4290323e-38
-2.022681 -3.777 -5.517687e-06 1.4290323e-38
-1.9752151 -3.7769992 -5.443891e-06 1.4290323e-38
-1.9277478 -3.7769973 -4.529953e-06 1.4290323e-38
-1.8766309 -3.7769978 -4.504408e-06 1.4290323e-38
-1.8255132 -3.7769961 -4.3511391e-06 1.4290323e-38
-1.7853498 -3.7769969 -4.3511391e-06 1.3644589e-38
1.7417201 -3.7769961 -4.1127205e-06 1.4290323e-38
1.7745811 -3.7769961 -4.010541e-06 1.4290323e-38
1.825698 -3.7769949 -3.8743019e-06 1.4290323e-38
1.8768152 -3.7769949 -3.8743019e-06 1.4290323e-38
1.9262345 -3.7762938 -3.7321677e-06 1.4290323e-38
1.9734454 -3.7776976 -4.2915344e-06 1.4290323e-38
2.0228648 -3.7769954 -4.1723251e-06 1.4290323e-38
2.0739818 -3.7769959 -4.1467802e-06 1.4290323e-38
2.1250987 -3.7769949 -4.1127205e-06 1.4290323e-38
2.1762159 -3.7769952 -4.0531158e-06 1.4290323e-38
2.2273328 -3.7769949 -3.9849961e-06 1.4290323e-38
2.2766988 -3.7762935 -3.9155666e-06 1.4290323e-38
2.3240161 -3.7776973 -4.1906651e-06 1.4290323e-38
2.354233 -3.7800376 -4.4902167e-06 1.4290323e-38
-2.2708094 -3.733849 -4.3511391e-06 1.4290323e-38
-2.2232022 -3.7318609 -4.2574748e-06 1.4290323e-38
-2.1737344 -3.7327549 -4.5478346e-06 1.4290323e-38
-2.1243694 -3.7318609 -4.0587925e-06 1.4290323e-38
-2.0749578 -3.7318635 -4.5180323e-06 1.4290323e-38
-2.0268383 -3.7309678 -5.2273272e-06 1.4290323e-38
-1.9773511 -3.7318642 -5.8015189e-06 1.4290323e-38
-1.9267333 -3.7318628 -4.9670539e-06 1.4290323e-38
-1.8761152 -3.7318602 -4.2234146e-06 1.4290323e-38
-1.8254983 -3.7318609 -4.1666485e-06 1.4290323e-38
-1.7857279 -3.7318609 -4.1325889e-06 1.3828982e-38
1.7414824 -3.7293086 -4.189355e-06 1.382898e-38
1.7754951 -3.7318609 -4.0587925e-06 1.4290323e-38
1.8261119 -3.7318606 -4.0417626e-06 1.4290323e-38
1.8767288 -3.7318606 -3.9906727e-06 1.4290323e-38
1.9273459 -3.7318599 -3.8544335e-06 1.4290323e-38
1.9768522 -3.7309642 -3.8921835e-06 1.4290323e-38
2.0249543 -3.7318623 -4.1782855e-06 1.4290323e-38
2.074367 -3.7318609 -4.0928521e-06 1.4290323e-38
2.123713 -3.7327538 -4.0709974e-06 1.4290323e-38
2.1731992 -3.7318602 -3.9906727e-06 1.4290323e-38
2.2238162 -3.7318609 -3.8998469e-06 1.4290323e-38
2.2744329 -3.7318594 -3.8374037e-06 1.4290323e-38
2.3185453 -3.7342451 -3.9100646e-06 1.4290323e-38
-2.259635 -3.6846421 -4.5100846e-06 1.4290323e-38
-2.2257123 -3.6788163 -4.1325889e-06 1.4290323e-38
-2.1756837 -3.6788158 -4.0814989e-06 1.4290323e-38
-2.1256554 -3.6788173 -4.9102873e-06 1.4290323e-38
-2.0756266 -3.6788173 -4.9329938e-06 1.4290323e-38
-2.0255966 -3.6788158 -4.2461215e-06 1.4290323e-38
-1.9755678 -3.6788163 -4.2858578e-06 1.4290323e-38
-1.9255382 -3.6788151 -3.7181944e-06 1.4290323e-38
-1.8755091 -3.6788151 -3.8430803e-06 1.4290323e-38
-1.8254808 -3.678817 -4.3483005e-06 1.4290323e-38
-1.7861723 -3.6788168 -4.2617321e-06 1.3828982e-38
1.7408351 -3.6788173 -4.609426e-06 1.336764e-38
1.77657 -3.678817 -4.5696893e-06 1.4290323e-38
1.8265991 -3.6788173 -4.4902167e-06 1.4290323e-38
1.8766278 -3.678817 -4.4902167e-06 1.4290323e-38
1.9266566 -3.678817 -4.4448034e-06 1.4290323e-38
1.976686 -3.678817 -4.3653308e-06 1.4290323e-38
2.026715 -3.6788173 -4.5753659e-06 1.4290323e-38
2.0767448 -3.6788182 -4.8762276e-06 1.4290323e-38
2.1267736 -3.6788182 -4.842168e-06 1.4290323e-38
2.1768024 -3.6788182 -4.7854014e-06 1.4290323e-38
2.2268314 -3.6788177 -4.7172821e-06 1.4290323e-38
2.2768602 -3.6788173 -4.6378091e-06 1.4290323e-38
2.3089685 -3.6904671 -4.2517981e-06 1.4290323e-38
-2.2205074 -3.6301963 -5.6922436e-06 1.4290323e-38
-2.1751702 -3.6269891 -5.1043248e-06 1.4290323e-38
-2.1245379 -3.6269913 -4.9613773e-06 1.4290323e-38
-2.0739734 -3.6262152 -4.6545811e-06 1.4290323e-38
-2.0232825 -3.6269901 -4.6151026e-06 1.4290323e-38
-1.9738295 -3.6269932 -6.0456141e-06 1.4290323e-38
-1.9243746 -3.6269932 -5.8526084e-06 1.4290323e-38
-1.8749193 -3.6269925 -5.4893039e-06 1.4290323e-38
-1.8254644 -3.6269908 -4.8648744e-06 1.4290323e-38
-1.786606 -3.6269894 -3.9438405e-06 1.4013374e-38
1.7422943 -3.6269896 -4.0001341e-06 1.3921177e-38
1.777619 -3.6269894 -3.9452598e-06 1.4290323e-38
1.8270731 -3.6269898 -3.8260505e-06 1.4290323e-38
1.8765277 -3.6269894 -3.8090207e-06 1.4290323e-38
1.9259825 -3.6269891 -3.7465777e-06 1.4290323e-38
1.9754366 -3.6269884 -3.6557515e-06 1.4290323e-38
2.0248914 -3.6269884 -3.5933085e-06 1.4290323e-38
2.0743461 -3.6269884 -3.6784581e-06 1.4290323e-38
2.1238003 -3.6269891 -3.803344e-06 1.4290323e-38
2.1732554 -3.6269884 -3.7692841e-06 1.4290323e-38
2.2239277 -3.6262131 -3.6900694e-06 1.4290323e-38
2.2669444 -3.630646 -3.6443982e-06 1.4290323e-38
-2.2077701 -3.5819037 -4.1325889e-06 1.4290323e-38
-2.1746833 -3.576339 -3.9736428e-06 1.4290323e-38
-2.1257908 -3.5763409 -4.5640127e-06 1.4290323e-38
-2.0768986 -3.5763426 -5.2395321e-06 1.4290323e-38
-2.025604 -3.5770652 -4.4418416e-06 1.4290323e-38
-1.9733661 -3.575583 -4.4866042e-06 1.4290323e-38
-1.923232 -3.576339 -3.695488e-06 1.4290323e-38
-1.8743395 -3.5763404 -4.1382655e-06 1.4290323e-38
-1.8254474 -3.5763426 -4.9840837e-06 1.4290323e-38
-1.7870312 -3.5763423 -4.9173832e-06 1.4290323e-38
1.7402277 -3.5763378 -3.1590462e-06 1.4290323e-38
1.7751521 -3.5763388 -3.6408503e-06 1.4290323e-38
1.8275379 -3.5763404 -4.1269122e-06 1.4290323e-38
1.8764316 -3.5763392 -4.0417626e-06 1.4290323e-38
1.9253241 -3.5763402 -3.9679662e-06 1.4290323e-38
1.9742172 -3.5763402 -3.8941703e-06 1.4290323e-38
2.0231106 -3.5763392 -3.803344e-06 1.4290323e-38
2.0743949 -3.575614 -3.747318e-06 1.4290323e-38
2.126652 -3.5770998 -4.0043483e-06 1.4290323e-38
2.176775 -3.5763397 -3.9622896e-06 1.4290323e-38
2.2256682 -3.5763397 -3.8828171e-06 1.4290323e-38
2.2569172 -3.5874679 -4.0928521e-06 1.4290323e-38
-2.1689489 -3.529707 -4.7262979e-06 1.4290323e-38
-2.1236038 -3.526087 -4.529953e-06 1.4290323e-38
-2.0740588 -3.5268276 -4.2517981e-06 1.4290323e-38
-2.0257144 -3.5268276 -4.1950316e-06 1.4290323e-38
-1.9761372 -3.5275724 -5.2668834e-06 1.4290323e-38
-1.9245026 -3.526119 -5.5250916e-06 1.4290323e-38
-1.8737757 -3.5268297 -5.0635563e-06 1.4290323e-38
-1.8254312 -3.526829 -4.791078e-06 1.4290323e-38
-1.7874455 -3.5268276 -4.2219958e-06 1.4198127e-38
1.7416629 -3.5268278 -4.3312707e-06 1.4290323e-38
1.7727416 -3.5268276 -4.2461215e-06 1.4290323e-38
1.8245392 -3.5268276 -4.1673579e-06 1.4290323e-38
1.8763365 -3.5268276 -4.0928521e-06 1.4290323e-38
1.9246808 -3.5268276 -4.0190562e-06 1.4290323e-38
1.9730252 -3.5268271 -3.9793194e-06 1.4290323e-38
2.0248225 -3.5268271 -3.8941703e-06 1.4290323e-38
2.0766201 -3.5268271 -3.7919908e-06 1.4290323e-38
2.1249645 -3.5268269 -3.7465777e-06 1.4290323e-38
2.1745088 -3.5260863 -4.0910459e-06 1.4290323e-38
2.216511 -3.5303228 -4.16381e-06 1.4290323e-38
-2.1582119 -3.4837344 -4.7882399e-06 1.4290323e-38
-2.1259217 -3.4784153 -4.870551e-06 1.4290323e-38
-2.0757763 -3.479111 -6.0693078e-06 1.4290323e-38
-2.0246801 -3.4776919 -5.2993946e-06 1.4290323e-38
-1.9756688 -3.4784157 -5.103293e-06 1.4290323e-38
-1.9244453 -3.4784143 -4.5249858e-06 1.4290323e-38
-1.8732227 -3.4784145 -4.4902167e-06 1.4290323e-38
-1.8254149 -3.478416 -5.0067902e-06 1.4290323e-38
-1.7912668 -3.4784155 -4.9538085e-06 1.4105931e-38
1.7396501 -3.4784136 -4.2120614e-06 1.3183246e-38
1.7737986 -3.4784138 -4.1836784e-06 1.4290323e-38
1.8250211 -3.4784143 -4.2965016e-06 1.4290323e-38
1.8762443 -3.4784153 -4.7854014e-06 1.4290323e-38
1.9240521 -3.4784153 -4.7002518e-06 1.4290323e-38
1.9752749 -3.4784143 -4.61936e-06 1.4290323e-38
2.0264974 -3.4784143 -4.5469828e-06 1.4290323e-38
2.0743053 -3.4784145 -4.4561566e-06 1.4290323e-38
2.1244433 -3.4777198 -4.3848286e-06 1.4290323e-38
2.1755564 -3.4791403 -4.3023715e-06 1.4290323e-38
2.2071829 -3.4890525 -4.0133796e-06 1.4290323e-38
-2.1180305 -3.4268396 -3.7442553e-06 1.4290323e-38
-2.0748668 -3.4233072 -4.9173832e-06 1.4290323e-38
-2.0250905 -3.4240565 -4.3453711e-06 1.4290323e-38
-1.9746269 -3.4225049 -4.6984901e-06 1.4290323e-38
-1.9265336 -3.4233072 -5.1387719e-06 1.4290323e-38
-1.875965 -3.4233062 -4.786998e-06 1.4290323e-38
-1.8253965 -3.4233069 -4.6661921e-06 1.4290323e-38
-1.7923166 -3.42118 -4.4649296e-06 1.4198127e-38
1.7412895 -3.4233048 -4.0630498e-06 1.3552392e-38
1.7750016 -3.4233041 -4.0020263e-06 1.4290323e-38
1.8255699 -3.4233038 -3.9301813e-06 1.4290323e-38
1.876138 -3.4233036 -3.8359844e-06 1.4290323e-38
1.9242501 -3.422503 -4.3367518e-06 1.4290323e-38
1.9746795 -3.4240561 -4.2492343e-06 1.4290323e-38
2.024472 -3.4233055 -4.16381e-06 1.4290323e-38
2.0750403 -3.4233053 -4.0866435e-06 1.4290323e-38
2.1256084 -3.4233055 -4.0147984e-06 1.4290323e-38
2.1656296 -3.4276249 -3.7352245e-06 1.4290323e-38
-2.1078868 -3.379632 -4.529953e-06 1.4290323e-38
-2.0750272 -3.3695242 -4.9372516e-06 1.4290323e-38
-2.0250974 -3.369525 -5.0465264e-06 1.4290323e-38
-1.9751678 -3.3695242 -4.8925481e-06 1.4290323e-38
-1.9252375 -3.3695233 -4.5015699e-06 1.4290323e-38
-1.8753074 -3.3695214 -3.695488e-06 1.4290323e-38
-1.825377 -3.3695202 -3.230004e-06 1.4290323e-38
-1.7887621 -3.3695204 -3.1789143e-06 1.4198127e-38
1.74289 -3.369523 -4.3445161e-06 1.4290323e-38
1.7761765 -3.3695226 -4.3028876e-06 1.4290323e-38
1.8261061 -3.3695233 -4.2418637e-06 1.4290323e-38
1.8760352 -3.3695221 -4.1609719e-06 1.4290323e-38
1.925965 -3.369523 -4.1077533e-06 1.4290323e-38
1.9758952 -3.3695235 -4.6775453e-06 1.4290323e-38
2.0258245 -3.3695233 -4.7087669e-06 1.4290323e-38
2.0757544 -3.3695233 -4.6207792e-06 1.4290323e-38
2.1247151 -3.3701816 -4.5817833e-06 1.4290323e-38
2.1566772 -3.3846998 -2.2649765e-06 1.4290323e-38
-2.0683901 -3.3273044 -4.5523047e-06 1.4290323e-38
-2.0251997 -3.3238745 -4.452208e-06 1.4290323e-38
-1.9735489 -3.3245203 -4.1921935e-06 1.4290323e-38
-1.924154 -3.3245206 -4.5923962e-06 1.4290323e-38
-1.8747588 -3.3245201 -4.5349202e-06 1.4290323e-38
-1.8253649 -3.3245227 -5.6993395e-06 1.4290323e-38
-1.7868022 -3.3234613 -5.2366936e-06 1.3736786e-38
1.7409352 -3.3245189 -3.695488e-06 1.4290323e-38
1.7738652 -3.3245192 -3.6507845e-06 1.4290323e-38
1.8265535 -3.3245189 -3.606081e-06 1.4290323e-38
1.8759484 -3.3245184 -3.4968059e-06 1.4290323e-38
1.9253434 -3.3245175 -3.4322341e-06 1.4290323e-38
1.9747384 -3.3245182 -3.37192e-06 1.4290323e-38
2.0241339 -3.3245184 -3.5266082e-06 1.4290323e-38
2.0757842 -3.3238728 -3.5970108e-06 1.4290323e-38
2.1157851 -3.3279443 -3.2278208e-06 1.4290323e-38
-2.0580435 -3.2853127 -3.9736428e-06 1.4290323e-38
-2.0237436 -3.2732482 -4.04194e-06 1.4290323e-38
-1.9749576 -3.2732489 -4.1552953e-06 1.4290323e-38
-1.9261717 -3.2732489 -4.4107437e-06 1.4290323e-38
-1.8741319 -3.2732482 -3.7066638e-06 1.4290323e-38
-1.8253462 -3.2732494 -4.2702472e-06 1.4290323e-38
-1.7863169 -3.2732487 -3.7193299e-06 1.3552395e-38
1.7399058 -3.2712708 -4.0747905e-06 1.336764e-38
1.775026 -3.2732501 -4.1685998e-06 1.4290323e-38
1.8270648 -3.2732494 -4.094094e-06 1.4290323e-38
1.8758508 -3.2732489 -4.0446007e-06 1.4290323e-38
1.9246371 -3.2732477 -3.9897859e-06 1.4290323e-38
1.9759188 -3.2725472 -3.8493063e-06 1.4290323e-38
2.0245888 -3.2739992 -3.8886892e-06 1.4290323e-38
2.0735533 -3.273948 -4.0992613e-06 1.4290323e-38
2.1066704 -3.2901566 -4.8875809e-06 1.4290323e-38
-2.0186224 -3.2250528 -4.4266385e-06 1.4290323e-38
-1.9763293 -3.2231684 -3.606081e-06 1.4290323e-38
-1.9249249 -3.2231684 -3.521641e-06 1.4290323e-38
-1.8735204 -3.2231684 -3.4024317e-06 1.4290323e-38
-1.8253298 -3.2231688 -4.0758223e-06 1.4290323e-38
-1.7867763 -3.2231696 -4.140536e-06 1.3644589e-38
1.7408183 -3.2231681 -3.6689971e-06 1.3552033e-38
1.7761594 -3.2231691 -4.4554472e-06 1.4290323e-38
1.8255165 -3.2238128 -4.4432554e-06 1.4290323e-38
1.8735225 -3.2225544 -4.0220179e-06 1.4290323e-38
1.9239459 -3.2231672 -3.4272671e-06 1.4290323e-38
1.9753499 -3.2231672 -3.3378601e-06 1.4290323e-38
2.0267546 -3.2231665 -3.2633543e-06 1.4290323e-38
2.0659654 -3.2255211 -3.3279259e-06 1.4290323e-38
-2.0078275 -3.1858404 -3.8146973e-06 1.4290323e-38
-1.9744968 -3.1743498 -3.7401915e-06 1.4290323e-38
-1.9237114 -3.17435 -4.1313469e-06 1.4290323e-38
-1.8729246 -3.1743484 -3.4496188e-06 1.4290323e-38
-1.8244416 -3.1736398 -3.794144e-06 1.4290323e-38
-1.7865484 -3.1754358 -3.3943277e-06 1.3921179e-38
1.7423482 -3.17435 -3.9438405e-06 1.4290323e-38
1.7772634 -3.1743512 -3.8966537e-06 1.4290323e-38
1.8248752 -3.1743507 -4.0701457e-06 1.4290323e-38
1.8724877 -3.1743515 -4.0344894e-06 1.4290323e-38
1.9232733 -3.1743503 -3.9562583e-06 1.4290323e-38
1.9740592 -3.1743495 -3.8743019e-06 1.4290323e-38
2.024158 -3.1750154 -3.8262338e-06 1.4290323e-38
2.0562837 -3.1904514 -3.4173329e-06 1.4290323e-38
-1.9668421 -3.128134 -3.4173329e-06 1.4290323e-38
-1.9225236 -3.1266382 -3.4819047e-06 1.4290323e-38
-1.8723416 -3.1266375 -3.2981236e-06 1.4290323e-38
-1.8221617 -3.1266403 -4.4157109e-06 1.4290323e-38
-1.7845258 -3.1266406 -4.8081079e-06 1.3829342e-38
1.7419926 -3.1285622 -2.8950828e-06 1.4290323e-38
1.7730411 -3.1260505 -2.6951666e-06 1.4290323e-38
1.8222505 -3.1266363 -2.6226044e-06 1.4290323e-38
1.8724327 -3.1266375 -3.0795734e-06 1.4290323e-38
1.9226146 -3.1266375 -3.3328931e-06 1.4290323e-38
1.9727958 -3.1266375 -3.2186508e-06 1.4290323e-38
2.01406 -3.128433 -3.2583873e-06 1.4290323e-38
-1.9599782 -3.0910561 -2.9802322e-06 1.4290323e-38
-1.9267318 -3.0807009 -3.6160152e-06 1.4290323e-38
-1.8748664 -3.0800991 -3.5552418e-06 1.4290323e-38
-1.8230236 -3.0795045 -3.695488e-06 1.4290323e-38
-1.7849879 -3.0801015 -3.5837293e-06 1.4013734e-38
1.7397277 -3.0783045 -3.6087904e-06 1.336764e-38
1.7731966 -3.0801022 -3.6135316e-06 1.4290323e-38
1.822789 -3.0801015 -3.5278499e-06 1.4290323e-38
1.8723811 -3.0801015 -3.4570694e-06 1.4290323e-38
1.9235982 -3.0793285 -3.8146973e-06 1.4290323e-38
1.9746826 -3.0809219 -3.8929284e-06 1.4290323e-38
2.0062387 -3.0965576 -3.5464764e-06 1.4290323e-38
-1.9193261 -3.0311182 -4.3240461e-06 1.4290323e-38
-1.8772584 -3.0282094 -4.1872263e-06 1.4290323e-38
-1.8252645 -3.028208 -3.6822425e-06 1.4290323e-38
-1.7855046 -3.0282073 -3.4272671e-06 1.4290323e-38
1.7408113 -3.0282099 -4.5994916e-06 1.3828982e-38
1.7744542 -3.0282106 -4.5485795e-06 1.4290323e-38
1.8233889 -3.0282102 -4.4666231e-06 1.4290323e-38
1.8746785 -3.0276599 -4.3869018e-06 1.4290323e-38
1.926546 -3.0287929 -4.3095965e-06 1.4290323e-38
1.9665576 -3.031765 -4.1524568e-06 1.4290323e-38
-1.9079847 -2.9880629 -3.5961468e-06 1.4290323e-38
-1.8765603 -2.9776723 -3.1851232e-06 1.4290323e-38
-1.8252473 -2.9776719 -3.3014351e-06 1.4290323e-38
-1.7860086 -2.9776735 -3.9413571e-06 1.4290323e-38
1.742474 -2.9776723 -3.5762787e-06 1.4290323e-38
1.7756764 -2.9776733 -3.5539269e-06 1.4290323e-38
1.8239712 -2.9776726 -3.4682453e-06 1.4290323e-38
1.875284 -2.9776731 -3.390842e-06 1.4290323e-38
1.925928 -2.9782739 -3.2378782e-06 1.4290323e-38
1.9561118 -2.9922307 -2.5828679e-06 1.4290323e-38
-1.8691559 -2.9312043 -4.2752786e-06 1.4290323e-38
-1.8252318 -2.9284434 -3.8875473e-06 1.4290323e-38
-1.786499 -2.9284427 -3.9339066e-06 1.4290323e-38
1.7411251 -2.9284427 -3.7948291e-06 1.3736785e-38
1.7753141 -2.9277282 -3.9759802e-06 1.4290323e-38
1.8245405 -2.928443 -4.3436885e-06 1.4290323e-38
1.875191 -2.9284427 -4.2716661e-06 1.4290323e-38
1.9162954 -2.9318175 -4.0332475e-06 1.4290323e-38
-1.8586496 -2.8903348 -3.9736428e-06 1.4290323e-38
-1.8246837 -2.8751192 -3.7876043e-06 1.4290323e-38
-1.7863524 -2.8734651 -4.4902167e-06 1.410593e-38
1.7399939 -2.8745837 -3.4968059e-06 1.3552032e-38
1.7752353 -2.8745854 -3.4623677e-06 1.4290323e-38
1.8251612 -2.8745847 -3.5017729e-06 1.4290323e-38
1.8735594 -2.8759878 -3.7891525e-06 1.4290323e-38
1.9066194 -2.8942938 -3.695488e-06 1.4290323e-38
-1.8157254 -2.8247983 -3.7117438e-06 1.4290323e-38
-1.784662 -2.8221917 -3.9398669e-06 1.3552395e-38
1.7418023 -2.822192 -4.2021275e-06 1.4290323e-38
1.775875 -2.8226814 -3.9168767e-06 1.4290323e-38
1.8249865 -2.8216708 -3.7279997e-06 1.4290323e-38
1.8627682 -2.8253777 -3.7484699e-06 1.4290323e-38
-1.8060784 -2.7861967 -4.8677125e-06 1.4290323e-38
-1.7851496 -2.7768707 -4.1902067e-06 1.3552393e-38
1.7425342 -2.7755816 -3.8146973e-06 1.4013374e-38
1.7748194 -2.7768703 -3.6880374e-06 1.4290323e-38
1.8227736 -2.777348 -3.6035265e-06 1.4290323e-38
1.8538818 -2.7899361 -3.5762787e-06 1.4290323e-38
-1.7799168 -2.7381177 -3.695488e-06 1.3552393e-38
1.7400979 -2.7285984 -3.9190054e-06 1.3552032e-38
1.7738091 -2.7267373 -3.9284878e-06 1.4290323e-38
1.8138394 -2.7315874 -3.7384034e-06 1.4290323e-38
1.7413715 -2.6736295 -3.282229e-06 1.4290323e-38
1.7732232 -2.6748838 -3.4201712e-06 1.4290323e-38
1.8040148 -2.6912591 -3.059705e-06 1.4290323e-38
1.7414917 -2.6199064 -3.5630333e-06 1.3736426e-38
1.7636328 -2.6267407 -3.606081e-06 1.4290323e-38
1.7394842 -2.5764768 -3.2094808e-06 1.3644229e-38
1.7526609 -2.5860624 -3.4570694e-06 1.4290323e-38
1.6914321 -2.465029 -3.059705e-06 1.3460559e-38
-1.6121707 -2.4114234 -2.4239223e-06 1.2999224e-38
-1.5758713 -2.4099185 -2.7537346e-06 1.3275811e-38
-1.5244927 -2.4099197 -2.8570494e-06 1.3275811e-38
-1.474804 -2.4095991 -4.5980728e-06 1.3276169e-38
-1.4260405 -2.4102316 -3.8064759e-06 1.3183974e-38
-1.3754944 -2.4099202 -3.2146772e-06 1.3276169e-38
-1.3249627 -2.4096074 -2.9350149e-06 1.3368006e-38
-1.2753115 -2.4099214 -4.2010997e-06 1.3183975e-38
-1.2256445 -2.4102328 -4.3038663e-06 1.3183975e-38
-1.1751175 -2.4099197 -3.6557515e-06 1.3276169e-38
-1.1246053 -2.4096079 -3.4694015e-06 1.3368006e-38
-1.0749335 -2.4099214 -3.8640251e-06 1.3183975e-38
-1.0244114 -2.4099212 -4.398823e-06 1.3276169e-38
-0.97474509 -2.4099202 -4.4064864e-06 1.3276171e-38
-0.92507845 -2.40992 -3.8385392e-06 1.3276169e-38
-0.87455577 -2.4099205 -3.4529587e-06 1.3275811e-38
-0.82487017 -2.4096098 -4.3737477e-06 1.3368365e-38
-0.7752437 -2.4102325 -4.3655264e-06 1.3275811e-38
-0.72555774 -2.4099224 -4.6779369e-06 1.3275811e-38
-0.67503464 -2.4099197 -3.5802523e-06 1.3276169e-38
-0.62451172 -2.4096091 -4.1065546e-06 1.3368365e-38
-0.57484663 -2.4102309 -3.5433934e-06 1.3275811e-38
-0.5251798 -2.4099214 -3.7859227e-06 1.3275811e-38
-0.47552723 -2.4096079 -3.3584133e-06 1.3368365e-38
-0.42499572 -2.4099197 -3.1153361e-06 1.3368005e-38
-0.37444985 -2.4102309 -3.1035522e-06 1.3276169e-38
-0.32480207 -2.4099202 -2.9309042e-06 1.3276169e-38
-0.27516901 -2.4096076 -2.8322484e-06 1.3368365e-38
-0.22461824 -2.4099193 -2.7696292e-06 1.3368006e-38
-0.17405322 -2.4102304 -2.7335923e-06 1.3276169e-38
-0.12532997 -2.4095969 -2.4821077e-06 1.3368365e-38
-0.083326526 -2.4099193 -2.5261015e-06 1.3368006e-38
0.073378816 -2.4099195 -3.1868617e-06 1.3183615e-38
0.12475763 -2.4099202 -3.1153361e-06 1.3368006e-38
0.17613646 -2.4099197 -2.9842058e-06 1.3368006e-38
0.22584109 -2.4095972 -3.005777e-06 1.3368365e-38
0.27457553 -2.4102318 -3.8393614e-06 1.3368005e-38
0.32513511 -2.40992 -3.6994616e-06 1.3368365e-38
0.37568039 -2.4096086 -3.621496e-06 1.34602e-38
0.4253189 -2.4099207 -3.4406266e-06 1.3368005e-38
0.47497216 -2.4102306 -3.5598359e-06 1.3368005e-38
0.5246647 -2.4096084 -3.8393614e-06 1.3460202e-38
0.57431769 -2.4099202 -3.7283733e-06 1.3368005e-38
0.62484032 -2.40992 -3.6557515e-06 1.3368365e-38
0.67536879 -2.4102309 -3.572168e-06 1.3368005e-38
0.72502285 -2.4096084 -3.4611801e-06 1.3460202e-38
0.77469504 -2.4099202 -3.3296387e-06 1.3368364e-38
0.82521755 -2.4099197 -3.3219656e-06 1.34602e-38
0.87488377 -2.409919 -3.3123154e-06 1.34602e-38
0.92454982 -2.4099195 -3.1749407e-06 1.34602e-38
0.97507221 -2.4099197 -3.0007855e-06 1.3368364e-38
1.0255947 -2.4099193 -3.071626e-06 1.34602e-38
1.075261 -2.4099195 -3.3974648e-06 1.34602e-38
1.1249274 -2.4099193 -3.2424928e-06 1.34602e-38
1.1754497 -2.40992 -3.1364375e-06 1.3368364e-38
1.2251159 -2.4096074 -3.0665562e-06 1.3460561e-38
1.2747817 -2.4102302 -3.1282161e-06 1.3368365e-38
1.3244485 -2.40992 -3.3008641e-06 1.3368365e-38
1.3741004 -2.4096074 -3.3214174e-06 1.3460561e-38
1.4246324 -2.4099195 -3.1987827e-06 1.34602e-38
1.4751785 -2.4102299 -3.1446589e-06 1.34602e-38
1.5248257 -2.4099195 -3.1241054e-06 1.34602e-38
1.5744588 -2.4096079 -3.3871881e-06 1.3460561e-38
1.6250097 -2.4099197 -3.3497811e-06 1.34602e-38
1.6652253 -2.4220531 -3.1630198e-06 1.3921539e-38
-1.6040531 -2.3860085 -2.3444493e-06 1.4290323e-38
-1.5740284 -2.3740346 -3.6244696e-06 1.4290323e-38
-1.5252552 -2.3742239 -2.9194111e-06 1.4290323e-38
-1.4749498 -2.3742237 -3.2615662e-06 1.4290323e-38
-1.4246408 -2.3744032 -2.7272165e-06 1.4290323e-38
-1.3748353 -2.3738625 -3.3889498e-06 1.4290323e-38
-1.325056 -2.374584 -3.5738458e-06 1.4290323e-38
-1.275261 -2.3740444 -3.4424722e-06 1.4290323e-38
-1.2242659 -2.374228 -3.7335335e-06 1.4290323e-38
-1.1746414 -2.3742254 -3.5130247e-06 1.4290323e-38
-1.1248426 -2.3738635 -3.8365929e-06 1.4290323e-38
-1.0750506 -2.3744056 -3.5933085e-06 1.4290323e-38
-1.0252575 -2.3740456 -4.1601611e-06 1.4290323e-38
-0.97494948 -2.3742242 -3.6239624e-06 1.4290323e-38
-0.9241361 -2.3742237 -3.8862227e-06 1.4290323e-38
-0.87484694 -2.3742244 -3.93137e-06 1.4290323e-38
-0.82555801 -2.3742247 -4.6491623e-06 1.4290323e-38
-0.7752502 -2.3740447 -4.0166233e-06 1.4290323e-38
-0.72494924 -2.3742239 -4.0316581e-06 1.4290323e-38
-0.67515564 -2.3740408 -3.9090714e-06 1.4290323e-38
-0.62535769 -2.3742239 -4.389286e-06 1.4290323e-38
-0.57505208 -2.3742261 -4.3596542e-06 1.4290323e-38
-0.52474642 -2.3742247 -3.9815905e-06 1.4290323e-38
-0.47443527 -2.3740454 -4.111504e-06 1.4290323e-38
-0.42515454 -2.374223 -4.1176877e-06 1.4290323e-38
-0.37535712 -2.3742244 -4.0435789e-06 1.4290323e-38
-0.32504895 -2.3744056 -3.9460706e-06 1.4290323e-38
-0.27525127 -2.3742261 -3.7611746e-06 1.4290323e-38
-0.22546226 -2.3740447 -4.0020263e-06 1.4290323e-38
-0.17568168 -2.3738637 -4.174758e-06 1.4290323e-38
-0.12535959 -2.3742249 -4.4107437e-06 1.4290323e-38
-0.082167998 -2.3742251 -4.3630598e-06 1.4290323e-38
0.04987051 -2.3653824 -4.0133796e-06 1.2355299e-38
0.074278109 -2.3747895 -4.3371892e-06 1.4198127e-38
0.12362731 -2.3742247 -4.2963029e-06 1.4290323e-38
0.17444098 -2.3742244 -4.1341782e-06 1.4290323e-38
0.22525461 -2.3742251 -4.0817263e-06 1.4290323e-38
0.27557039 -2.3738635 -3.9971605e-06 1.4290323e-38
0.3253541 -2.3740444 -3.9436381e-06 1.4290323e-38
0.37514627 -2.3742249 -3.4716666e-06 1.4290323e-38
0.42494699 -2.3744049 -3.4546365e-06 1.4290323e-38
0.47525191 -2.3742247 -3.3187866e-06 1.4290323e-38
0.52504933 -2.3742211 -3.3006072e-06 1.4290323e-38
0.57432699 -2.3740435 -3.6930551e-06 1.4290323e-38
0.62464136 -2.3742239 -3.6144256e-06 1.4290323e-38
0.67494684 -2.3742239 -3.4984278e-06 1.4290323e-38
0.72474527 -2.3738613 -3.4595023e-06 1.4290323e-38
0.77504402 -2.3742225 -3.41177e-06 1.4290323e-38
0.82535475 -2.3744047 -3.9266079e-06 1.4290323e-38
0.87514234 -2.3740454 -4.3839823e-06 1.4290323e-38
0.92545283 -2.3742247 -4.3010714e-06 1.4290323e-38
0.97526509 -2.3738568 -4.1251383e-06 1.4290323e-38
1.0245248 -2.3745842 -4.1236681e-06 1.4290323e-38
1.0748447 -2.3742249 -4.131794e-06 1.4290323e-38
1.1251496 -2.3740449 -4.5104903e-06 1.4290323e-38
1.1749493 -2.3744061 -4.4350722e-06 1.4290323e-38
1.2247316 -2.3738632 -4.3328928e-06 1.4290323e-38
1.2750452 -2.3742251 -4.2796137e-06 1.4290323e-38
1.3253509 -2.3742266 -4.3085643e-06 1.4290323e-38
1.3751538 -2.3740451 -4.4983262e-06 1.4290323e-38
1.4249476 -2.3738623 -3.9144438e-06 1.4290323e-38
1.4747339 -2.3745842 -3.9217425e-06 1.4290323e-38
1.525045 -2.3742249 -3.7908553e-06 1.4290323e-38
1.5753564 -2.3744056 -3.8001001e-06 1.4290323e-38
1.6238693 -2.3751838 -3.9805536e-06 1.4290323e-38
1.6544597 -2.391943 -5.2452087e-06 1.4290323e-38
-1.5656238 -2.3294783 -3.9637089e-06 1.4290323e-38
-1.5247051 -2.3263824 -3.5802523e-06 1.4290323e-38
-1.4746494 -2.3263834 -4.0729842e-06 1.4290323e-38
-1.4245932 -2.3263838 -3.618002e-06 1.4290323e-38
-1.3745366 -2.3263831 -3.5226344e-06 1.4290323e-38
-1.3244804 -2.3263829 -3.4809113e-06 1.4290323e-38
-1.2744244 -2.3263843 -3.6279359e-06 1.4290323e-38
-1.2235367 -2.3266122 -4.0510245e-06 1.4290323e-38
-1.1747289 -2.3260181 -3.630832e-06 1.4290323e-38
-1.1250966 -2.3263831 -4.140536e-06 1.4290323e-38
-1.0750402 -2.3263829 -3.7431716e-06 1.4290323e-38
-1.0249842 -2.3263838 -4.4107437e-06 1.4290323e-38
-0.97492784 -2.3263831 -3.8345656e-06 1.4290323e-38
-0.92446858 -2.3260331 -4.4146523e-06 1.4290323e-38
-0.87398696 -2.3263841 -3.9875508e-06 1.4290323e-38
-0.82434058 -2.3261645 -3.9480501e-06 1.4290323e-38
-0.77471215 -2.3263826 -3.6478043e-06 1.4290323e-38
-0.72465622 -2.3263829 -3.9517881e-06 1.4290323e-38
-0.6746003 -2.3263829 -4.45048e-06 1.4290323e-38
-0.62454385 -2.3263834 -4.0709974e-06 1.4290323e-38
-0.57448786 -2.3263831 -4.1147073e-06 1.4290323e-38
-0.52485204 -2.3260174 -3.1135851e-06 1.4290323e-38
-0.47521514 -2.3263814 -3.2623609e-06 1.4290323e-38
-0.42515898 -2.3263826 -3.2623609e-06 1.4290323e-38
-0.37510297 -2.3263824 -3.3458075e-06 1.4290323e-38
-0.32504684 -2.3263826 -3.4888585e-06 1.4290323e-38
-0.27499068 -2.3263822 -3.4252803e-06 1.4290323e-38
-0.22493453 -2.3263824 -3.2703081e-06 1.4290323e-38
-0.17487837 -2.3263829 -3.1888485e-06 1.4290323e-38
-0.1244176 -2.3261709 -3.1873828e-06 1.4290323e-38
-0.081061438 -2.3258858 -3.30182e-06 1.4290323e-38
0.049530864 -2.3263819 -3.0398369e-06 1.2355299e-38
0.076670989 -2.3260171 -3.0186218e-06 1.4290323e-38
0.1258731 -2.3261645 -3.0388267e-06 1.4290323e-38
0.17549638 -2.3263824 -3.0656656e-06 1.4290323e-38
0.22513711 -2.3263109 -2.9721502e-06 1.4290323e-38
0.27477318 -2.3263824 -2.9027462e-06 1.4290323e-38
0.32482925 -2.3263824 -2.771616e-06 1.4290323e-38
0.37488541 -2.3263826 -2.8411548e-06 1.4290323e-38
0.42494151 -2.3263824 -3.1371912e-06 1.4290323e-38
0.47499773 -2.3263826 -3.3160052e-06 1.4290323e-38
0.52505392 -2.3263819 -3.2405057e-06 1.4290323e-38
0.5751099 -2.3263822 -3.0934812e-06 1.4290323e-38
0.62516612 -2.3263819 -3.2107034e-06 1.4290323e-38
0.67522252 -2.3263819 -3.5007795e-06 1.4290323e-38
0.72485572 -2.3260176 -3.5964836e-06 1.4290323e-38
0.77449471 -2.3263826 -3.5007795e-06 1.4290323e-38
0.8249647 -2.3260317 -3.4179843e-06 1.4290323e-38
0.87543547 -2.3263824 -3.317992e-06 1.4290323e-38
0.92549163 -2.3263822 -3.4570694e-06 1.4290323e-38
0.97554761 -2.3263824 -3.3557415e-06 1.4290323e-38
1.025604 -2.3263822 -3.2643477e-06 1.4290323e-38
1.0752462 -2.3261647 -3.2065279e-06 1.4290323e-38
1.1248783 -2.3263814 -3.1590462e-06 1.4290323e-38
1.1749347 -2.3263831 -3.4848849e-06 1.4290323e-38
1.2249906 -2.3263826 -3.4014383e-06 1.4290323e-38
1.2750469 -2.3263826 -3.3160052e-06 1.4290323e-38
1.3251029 -2.3263824 -3.238519e-06 1.4290323e-38
1.374732 -2.3260176 -3.2489584e-06 1.4290323e-38
1.4243753 -2.3263824 -3.6160152e-06 1.4290323e-38
1.4744316 -2.3263824 -3.6935012e-06 1.4290323e-38
1.5249058 -2.3261719 -3.5997298e-06 1.4290323e-38
1.5753747 -2.3263819 -3.5146873e-06 1.4290323e-38
1.6132177 -2.3309777 -3.3548899e-06 1.4290323e-38
-1.5560957 -2.2910097 -4.1524568e-06 1.4290323e-38
-1.5246288 -2.2760453 -4.2319298e-06 1.4290323e-38
-1.4749055 -2.2758384 -4.7722801e-06 1.4290323e-38
-1.4252404 -2.2757716 -4.220009e-06 1.4290323e-38
-1.3751577 -2.2756371 -3.7320199e-06 1.4290323e-38
-1.324681 -2.2755666 -4.0667956e-06 1.4290323e-38
-1.2750185 -2.2757709 -4.3451787e-06 1.4290323e-38
-1.2243689 -2.2761886 -4.4564408e-06 1.4290323e-38
-1.1748621 -2.2757711 -3.8166841e-06 1.4290323e-38
-1.1247964 -2.2755048 -4.3434479e-06 1.4290323e-38
-1.0747157 -2.2757699 -4.4067701e-06 1.4290323e-38
-1.0250573 -2.2755668 -4.5670836e-06 1.4290323e-38
-0.97538817 -2.2757716 -3.9815905e-06 1.4290323e-38
-0.9249019 -2.2755728 -3.5403266e-06 1.4290323e-38
-0.87441951 -2.2757711 -4.2517981e-06 1.4290323e-38
-0.82516468 -2.2757704 -4.1087469e-06 1.4290323e-38
-0.77549565 -2.2755671 -4.0726582e-06 1.4290323e-38
-0.72542232 -2.2758367 -3.695488e-06 1.4290323e-38
-0.67535043 -2.2754319 -3.9260894e-06 1.4290323e-38
-0.62486982 -2.2760379 -3.6435742e-06 1.4290323e-38
-0.57478923 -2.2757697 -3.7888685e-06 1.4290323e-38
-0.5251233 -2.2755659 -3.4472982e-06 1.4290323e-38
-0.4746474 -2.2756379 -3.8050837e-06 1.4290323e-38
-0.42456773 -2.2757695 -3.8723151e-06 1.4290323e-38
-0.37490404 -2.2758369 -3.7853836e-06 1.4290323e-38
-0.3248255 -2.2757008 -3.6896251e-06 1.4290323e-38
-0.2747536 -2.2755654 -3.9163183e-06 1.4290323e-38
-0.22468816 -2.2754304 -3.9808087e-06 1.4290323e-38
-0.17501904 -2.2757697 -3.9537749e-06 1.4290323e-38
-0.12576428 -2.2757707 -3.8703283e-06 1.4290323e-38
-0.081435002 -2.2757697 -3.7724774e-06 1.4290323e-38
0.049090128 -2.2757707 -4.2716661e-06 1.39219e-38
0.076180249 -2.2757711 -4.1047733e-06 1.4290323e-38
0.12543496 -2.2757707 -3.6080678e-06 1.4290323e-38
0.17468977 -2.2757707 -3.6219756e-06 1.4290323e-38
0.22436367 -2.2754316 -3.9514948e-06 1.4290323e-38
0.27483836 -2.2755022 -4.095416e-06 1.4290323e-38
0.32531792 -2.2758384 -4.0081682e-06 1.4290323e-38
0.37498376 -2.2757716 -3.9557617e-06 1.4290323e-38
0.42465678 -2.2759748 -3.8518278e-06 1.4290323e-38
0.47472265 -2.2754319 -3.8791877e-06 1.4290323e-38
0.5247972 -2.2755668 -4.1332401e-06 1.4290323e-38
0.57527781 -2.2760389 -4.0800342e-06 1.4290323e-38
0.62536103 -2.2757711 -3.9478141e-06 1.4290323e-38
0.675026 -2.2754312 -3.865508e-06 1.4290323e-38
0.72509211 -2.2758379 -4.060933e-06 1.4290323e-38
0.77516943 -2.2755654 -4.1840508e-06 1.4290323e-38
0.82483524 -2.2757704 -4.0948389e-06 1.4290323e-38
0.87451082 -2.275974 -3.9690831e-06 1.4290323e-38
0.92497587 -2.2753685 -3.8858384e-06 1.4290323e-38
0.97505891 -2.2757699 -4.0352343e-06 1.4290323e-38
1.0247307 -2.2755659 -4.1469198e-06 1.4290323e-38
1.0747998 -2.2758379 -4.1019721e-06 1.4290323e-38
1.1248775 -2.2754321 -3.6622657e-06 1.4290323e-38
1.174944 -2.2761118 -3.4238471e-06 1.4290323e-38
1.2250178 -2.275702 -3.8615995e-06 1.4290323e-38
1.275103 -2.2755654 -4.0394361e-06 1.4290323e-38
1.3251714 -2.275975 -3.9378151e-06 1.4290323e-38
1.3752412 -2.2754321 -3.8068802e-06 1.4290323e-38
1.4253185 -2.2758374 -3.7404357e-06 1.4290323e-38
1.4749873 -2.2757699 -3.7252903e-06 1.4290323e-38
1.5246527 -2.2757003 -3.8459652e-06 1.4290323e-38
1.5728761 -2.2768054 -3.7699938e-06 1.4290323e-38
1.6031567 -2.2937977 -3.6160152e-06 1.4290323e-38
-1.5155423 -2.229655 -2.9404957e-06 1.4290323e-38
-1.475149 -2.2270105 -3.9396746e-06 1.4290323e-38
-1.424659 -2.2265635 -3.642506e-06 1.4290323e-38
-1.3745631 -2.2266846 -3.0505853e-06 1.4290323e-38
-1.3248626 -2.2264931 -3.2974829e-06 1.4290323e-38
-1.2747797 -2.2267511 -3.1282825e-06 1.4290323e-38
-1.2246846 -2.2270117 -3.1667371e-06 1.4290323e-38
-1.1745912 -2.2264922 -2.6072225e-06 1.4290323e-38
-1.1249003 -2.2265534 -2.8668858e-06 1.4290323e-38
-1.0752054 -2.2268786 -2.5168542e-06 1.4290323e-38
-1.0251158 -2.2267542 -3.082137e-06 1.4290323e-38
-0.97538918 -2.2269473 -3.3749909e-06 1.4290323e-38
-0.92455775 -2.2307584 -3.9499541e-06 1.4290323e-38
-0.87448788 -2.2270918 -3.3156346e-06 1.4290323e-38
-0.82514036 -2.2269428 -2.8553463e-06 1.4290323e-38
-0.77465194 -2.2263637 -3.9608249e-06 1.4290323e-38
-0.72497696 -2.2276349 -3.655078e-06 1.4290323e-38
-0.67526495 -2.2266209 -3.6012741e-06 1.4290323e-38
-0.62477714 -2.2266898 -3.4230095e-06 1.4290323e-38
-0.57467365 -2.2265546 -3.8381481e-06 1.4290323e-38
-0.5249939 -2.2266226 -3.9069882e-06 1.4290323e-38
-0.47489756 -2.2267499 -3.5089831e-06 1.4290323e-38
-0.4247947 -2.2268832 -3.8666108e-06 1.4290323e-38
-0.37471667 -2.226625 -4.072343e-06 1.4290323e-38
-0.32501817 -2.2268181 -4.1234689e-06 1.4290323e-38
-0.27492896 -2.2261789 -4.0058108e-06 1.4290323e-38
-0.22482781 -2.2270837 -3.9632205e-06 1.4290323e-38
-0.17512983 -2.2270114 -4.0973387e-06 1.4290323e-38
-0.12467331 -2.2261767 -3.6803503e-06 1.4290323e-38
-0.07850334 -2.2260418 -3.5903033e-06 1.392154e-38
0.048663244 -2.226752 -3.317992e-06 1.4290323e-38
0.075326487 -2.2267523 -3.4173329e-06 1.4290323e-38
0.12464349 -2.226234 -3.4570694e-06 1.4290323e-38
0.1750953 -2.2269416 -3.4400396e-06 1.4290323e-38
0.22519222 -2.227083 -3.3261347e-06 1.4290323e-38
0.27490175 -2.2262332 -3.2244191e-06 1.4290323e-38
0.324983 -2.2267506 -3.3609329e-06 1.4290323e-38
0.37467802 -2.2269499 -3.298775e-06 1.4290323e-38
0.42476365 -2.2265625 -3.1448546e-06 1.4290323e-38
0.474859 -2.226685 -3.1189841e-06 1.4290323e-38
0.52455944 -2.2264936 -3.0090732e-06 1.4290323e-38
0.5746426 -2.2267513 -3.1725053e-06 1.4290323e-38
0.62473822 -2.2270112 -3.287869e-06 1.4290323e-38
0.67483056 -2.2264919 -3.23211e-06 1.4290323e-38
0.72492629 -2.2267506 -3.1263598e-06 1.4290323e-38
0.77502626 -2.2263632 -3.1436643e-06 1.4290323e-38
0.82511014 -2.2271407 -3.3474737e-06 1.4290323e-38
0.87479579 -2.226553 -3.328089e-06 1.4290323e-38
0.9248969 -2.2265592 -3.2129742e-06 1.4290323e-38
0.97499835 -2.2265537 -3.1580691e-06 1.4290323e-38
1.0246764 -2.2271402 -3.0571414e-06 1.4290323e-38
1.0747706 -2.2263625 -3.174428e-06 1.4290323e-38
1.1248651 -2.2267509 -3.174428e-06 1.4290323e-38
1.1749643 -2.2264922 -3.0129186e-06 1.4290323e-38
1.2250496 -2.2270107 -2.9033231e-06 1.4290323e-38
1.2751487 -2.2267504 -2.8956322e-06 1.4290323e-38
1.3252351 -2.2264931 -2.9840778e-06 1.4290323e-38
1.374933 -2.2266841 -2.8668858e-06 1.4290323e-38
1.42503 -2.2265611 -2.7531669e-06 1.4290323e-38
1.4751104 -2.2269475 -2.7183626e-06 1.4290323e-38
1.524808 -2.2267478 -2.7994956e-06 1.4290323e-38
1.5625626 -2.2304971 -3.1939869e-06 1.4290323e-38
-1.5052892 -2.1899734 -4.1127205e-06 1.4290323e-38
-1.4737165 -2.1762626 -3.7660061e-06 1.4290323e-38
-1.4249481 -2.1752753 -3.4868717e-06 1.4290323e-38
-1.3752315 -2.1751754 -3.1058853e-06 1.4290323e-38
-1.3251909 -2.1755972 -3.3019339e-06 1.0786889e-38
-1.2751417 -2.1751752 -3.3620242e-06 1.0049324e-38
-1.2247576 -2.1752827 -4.4977342e-06 1.0049324e-38
-1.175053 -2.1752782 -4.6011473e-06 1.0325911e-38
-1.1253369 -2.1751771 -4.855362e-06 1.0049324e-38
-1.0749558 -2.1754916 -4.3527498e-06 1.0049324e-38
-1.0249062 -2.1752803 -4.2229481e-06 1.0141519e-38
-0.97485578 -2.175493 -4.9407417e-06 1.0233715e-38
-0.92448169 -2.1750722 -4.5670045e-06 1.0233715e-38
-0.87441552 -2.1750669 -4.0645468e-06 9.957128e-39
-0.82472205 -2.175492 -3.5256555e-06 1.0049324e-38
-0.77501261 -2.1751735 -3.7559091e-06 1.0141519e-38
-0.72496146 -2.1755953 -3.9242409e-06 1.0233715e-38
-0.67492223 -2.1751733 -3.5256555e-06 9.957128e-39
-0.62485725 -2.1755958 -4.2722031e-06 1.0049324e-38
-0.57483226 -2.175173 -3.9926945e-06 1.0141519e-38
-0.52511328 -2.1749613 -4.4776971e-06 1.0233715e-38
-0.47540742 -2.1755989 -4.1772241e-06 9.957128e-39
-0.42536661 -2.1751764 -4.4816247e-06 9.957128e-39
-0.37496424 -2.1753867 -3.9854567e-06 1.0233715e-38
-0.32493418 -2.1753862 -3.5975077e-06 1.0233715e-38
-0.27521592 -2.1750638 -3.677525e-06 9.8649324e-39
-0.22516894 -2.1757033 -3.5714459e-06 1.0233715e-38
-0.17479844 -2.1747556 -3.5440601e-06 1.0141519e-38
-0.12505609 -2.1759269 -3.3858751e-06 1.0049324e-38
-0.07744316 -2.1748142 -3.5236862e-06 9.6805411e-39
0.048215922 -2.1753855 -3.5422188e-06 1.0694693e-38
0.074431844 -2.175386 -3.4843172e-06 9.8649324e-39
0.12448041 -2.1753855 -3.49887e-06 1.0141519e-38
0.17522526 -2.1748471 -3.7203233e-06 1.0141519e-38
0.224907 -2.1755943 -3.8469161e-06 9.8649324e-39
0.27496028 -2.1751752 -3.7885693e-06 1.0049324e-38
0.32466602 -2.1753829 -3.6399658e-06 1.0233715e-38
0.37505105 -2.1752839 -3.859202e-06 9.8649324e-39
0.42510778 -2.1754923 -4.0315917e-06 1.0049324e-38
0.47514501 -2.1752849 -4.0547052e-06 1.0233715e-38
0.525199 -2.1750624 -3.9140382e-06 1.3183975e-38
0.574902 -2.1753848 -3.8565818e-06 1.4290323e-38
0.62495035 -2.1753874 -3.5207565e-06 1.4290323e-38
0.67499918 -2.1753857 -3.8598037e-06 1.4290323e-38
0.7253834 -2.1751769 -3.7776458e-06 1.4290323e-38
0.7750926 -2.1753843 -3.642506e-06 1.4290323e-38
0.82479703 -2.1750717 -3.5440601e-06 1.4290323e-38
0.87518454 -2.1753867 -3.5488927e-06 1.4290323e-38
0.92523342 -2.1753845 -3.693855e-06 1.4290323e-38
0.97528201 -2.1753864 -3.7341504e-06 1.4290323e-38
1.0253301 -2.175384 -3.6252688e-06 1.4290323e-38
1.0750358 -2.1750677 -3.5517837e-06 1.4290323e-38
1.1247436 -2.1754918 -3.6383328e-06 1.4290323e-38
1.1747875 -2.1752801 -3.771202e-06 1.4290323e-38
1.2251762 -2.1751781 -3.7035427e-06 1.4290323e-38
1.2752254 -2.1752789 -3.6056726e-06 1.4290323e-38
1.3249296 -2.175173 -3.5436185e-06 1.4290323e-38
1.3749794 -2.1755967 -3.7873112e-06 1.4290323e-38
1.4250201 -2.1751726 -3.9730985e-06 1.4290323e-38
1.4747415 -2.1753879 -3.9616675e-06 1.4290323e-38
1.5227103 -2.1770067 -3.8022426e-06 1.4290323e-38
1.553826 -2.1961813 -3.8941703e-06 1.4290323e-38
-1.4651784 -2.128263 -3.6358833e-06 1.4290323e-38
-1.4236141 -2.1255493 -3.8660805e-06 1.4290323e-38
-1.3753403 -2.1254902 -3.4476084e-06 1.4290323e-38
-1.3253345 -2.1256151 -3.8128633e-06 8.2976067e-39
-1.2752925 -2.1253741 -3.5195123e-06 7.3756504e-39
-1.224938 -2.1256735 -4.298985e-06 7.3756504e-39
-1.1749297 -2.1259067 -3.9078295e-06 7.3756504e-39
-1.1249352 -2.1254354 -3.0677766e-06 7.3756504e-39
-1.0749273 -2.1256716 -3.4309924e-06 7.3756504e-39
-1.0249244 -2.1253188 -3.4812838e-06 7.3756504e-39
-0.97532028 -2.1258507 -3.6557515e-06 7.3756504e-39
-0.92492008 -2.1256709 -3.1066663e-06 7.3756504e-39
-0.87452912 -2.1254926 -3.1675611e-06 7.3756504e-39
-0.82490844 -2.1255555 -3.9078295e-06 7.3756504e-39
-0.77491546 -2.1256711 -4.561618e-06 7.3756504e-39
-0.7249161 -2.1257915 -4.33065e-06 7.3756504e-39
-0.67490405 -2.1255553 -3.6563724e-06 7.3756504e-39
-0.62530178 -2.1256115 -3.7125178e-06 7.3756504e-39
-0.57528973 -2.1254988 -3.8550452e-06 7.3756504e-39
-0.52490574 -2.1255534 -3.7308782e-06 7.3756504e-39
-0.47490072 -2.1256735 -3.8128346e-06 7.3756504e-39
-0.42488956 -2.1257894 -3.3471733e-06 7.3756504e-39
-0.37490177 -2.1255543 -4.2188913e-06 7.3756504e-39
-0.32489046 -2.1256726 -3.779307e-06 7.3756504e-39
-0.27489278 -2.1252003 -3.2987446e-06 7.3756504e-39
-0.22487816 -2.1261406 -3.4570694e-06 7.3756504e-39
-0.17527905 -2.1254945 -3.55168e-06 7.3756504e-39
-0.12528887 -2.1253815 -3.4680734e-06 7.3756504e-39
-0.076444164 -2.1256711 -3.4113725e-06 7.2834548e-39
0.047782999 -2.1256719 -3.4372013e-06 7.3756504e-39
0.07590989 -2.1256709 -3.3775966e-06 7.3756504e-39
0.12513198 -2.1256716 -3.2603741e-06 7.3756504e-39
0.17435402 -2.1256711 -3.1698835e-06 7.3756504e-39
0.22515139 -2.1252003 -3.1013042e-06 7.3756504e-39
0.27513406 -2.1256728 -3.1832606e-06 7.3756504e-39
0.32514086 -2.1261392 -3.1720847e-06 7.3756504e-39
0.3751376 -2.1251998 -3.0752271e-06 7.3756504e-39
0.42514417 -2.1256721 -2.9262155e-06 7.3756504e-39
0.47515303 -2.1255524 -3.0063093e-06 7.3756504e-39
0.52475035 -2.1257305 -3.2394651e-06 1.2722997e-38
0.57476807 -2.1257291 -3.4974171e-06 1.4290323e-38
0.62475973 -2.1253722 -3.4097641e-06 1.4290323e-38
0.6747703 -2.1256144 -3.2755045e-06 1.4290323e-38
0.72476429 -2.1257303 -3.4135485e-06 1.4290323e-38
0.77476889 -2.1254973 -3.6221284e-06 1.4290323e-38
0.82517195 -2.1257901 -3.5073608e-06 1.4290323e-38
0.8751688 -2.1256688 -3.4123659e-06 1.4290323e-38
0.92515975 -2.125555 -3.3359975e-06 1.4290323e-38
0.97477955 -2.1254916 -3.2867704e-06 1.4290323e-38
1.0247892 -2.1254978 -3.4387294e-06 1.4290323e-38
1.0751805 -2.1260235 -3.3285469e-06 1.4290323e-38
1.1251713 -2.1253185 -3.1962991e-06 1.4290323e-38
1.175181 -2.1256714 -3.1199306e-06 1.4290323e-38
1.2251844 -2.1254361 -3.2000244e-06 1.4290323e-38
1.2751876 -2.1259062 -3.170222e-06 1.4290323e-38
1.3247969 -2.125371 -3.1372858e-06 1.4290323e-38
1.3747956 -2.1257288 -3.0040742e-06 1.4290323e-38
1.4252021 -2.1254358 -2.9671937e-06 1.4290323e-38
1.4747987 -2.1258478 -3.1808065e-06 1.4290323e-38
1.5116433 -2.1291735 -3.2186508e-06 1.4290323e-38
-1.4554523 -2.0912662 -1.8626451e-06 1.4290323e-38
-1.4254113 -2.0784049 -3.4607374e-06 1.4290323e-38
-1.3753165 -2.0776265 -3.8237281e-06 1.4290323e-38
-1.32442 -2.0773172 -3.6464978e-06 8.2054111e-39
-1.2751788 -2.0777097 -2.9504299e-06 7.3756504e-39
-1.2251153 -2.0774217 -3.5637304e-06 7.3756504e-39
-1.1750382 -2.0775185 -3.3802107e-06 7.3756504e-39
-1.1258786 -2.0790238 -2.9173161e-06 7.3756504e-39
-1.0743679 -2.0779049 -3.3169179e-06 7.3756504e-39
-1.0258303 -2.0768054 -3.0679835e-06 7.3756504e-39
-0.97509784 -2.0776138 -3.7790892e-06 7.3756504e-39
-0.92436844 -2.0776138 -3.6800063e-06 7.3756504e-39
-0.87575728 -2.076988 -3.3889498e-06 7.3756504e-39
-0.82486326 -2.077023 -3.2943649e-06 7.3756504e-39
-0.77514732 -2.0774219 -3.228062e-06 7.3756504e-39
-0.72507942 -2.0776145 -3.5213798e-06 7.3756504e-39
-0.67501235 -2.0773246 -3.1731631e-06 7.3756504e-39
-0.62527651 -2.0777113 -2.9071173e-06 7.3756504e-39
-0.57759064 -2.0788798 -3.3672304e-06 7.3756504e-39
-0.52490062 -2.0921788 -3.3229589e-06 7.3756504e-39
-0.47547433 -2.0919495 -3.8184226e-06 7.3756504e-39
-0.42525679 -2.0921793 -3.6521392e-06 7.3756504e-39
-0.37427449 -2.092181 -5.1223869e-06 7.3756504e-39
-0.32404125 -2.0924106 -5.0142407e-06 7.3756504e-39
-0.27542251 -2.0919416 -3.6339607e-06 7.3756504e-39
-0.22596097 -2.0921781 -3.2186508e-06 7.3756504e-39
-0.17497833 -2.0921779 -3.103054e-06 7.3756504e-39
-0.12399575 -2.0921788 -3.7279997e-06 7.3756504e-39
-0.075330503 -2.0921795 -4.0531158e-06 7.2834548e-39
0.047491323 -2.0921786 -3.695488e-06 7.3756504e-39
0.075300045 -2.0921788 -3.7821856e-06 7.3756504e-39
0.12628272 -2.0921793 -4.1145267e-06 7.3756504e-39
0.17575584 -2.0919428 -4.0915706e-06 7.3756504e-39
0.22435141 -2.0924082 -3.8817525e-06 7.3756504e-39
0.27459583 -2.0921783 -3.847209e-06 7.3756504e-39
0.3255786 -2.0921798 -4.1939998e-06 7.3756504e-39
0.37580723 -2.0919492 -3.4458935e-06 7.3756504e-39
0.42522222 -2.0921786 -2.9914081e-06 7.3756504e-39
0.47464919 -2.0924065 -2.9280782e-06 7.3756504e-39
0.52487397 -2.0921779 -2.8068368e-06 1.2722997e-38
0.5771957 -2.0785756 -3.0661331e-06 1.4198127e-38
0.62480557 -2.0774226 -3.4319728e-06 1.4290323e-38
0.67486626 -2.0777102 -3.3111949e-06 1.4290323e-38
0.724944 -2.0775192 -3.2186508e-06 1.4290323e-38
0.7750119 -2.0773246 -3.060228e-06 1.4290323e-38
0.82507783 -2.0778055 -3.1904171e-06 1.4290323e-38
0.87481385 -2.07742 -3.320376e-06 1.4290323e-38
0.92488635 -2.0776129 -3.2480662e-06 1.4290323e-38
0.97529364 -2.0773256 -3.1621832e-06 1.4290323e-38
1.0250214 -2.0776155 -3.2520295e-06 1.4290323e-38
1.0750922 -2.0776148 -3.517448e-06 1.4290323e-38
1.1251647 -2.0777094 -3.5365422e-06 1.4290323e-38
1.1749042 -2.0776153 -3.4319728e-06 1.4290323e-38
1.2249662 -2.0773258 -3.3159006e-06 1.4290323e-38
1.2750412 -2.0775189 -3.6939193e-06 1.4290323e-38
1.3251091 -2.077805 -3.6923509e-06 1.4290323e-38
1.3751782 -2.0774226 -3.2641385e-06 1.4290323e-38
