# .PCD v0.7 - Point Cloud Data file format
VERSION 0.7
FIELDS x y z rgb
SIZE 4 4 4 4
TYPE F F F F
COUNT 1 1 1 1
WIDTH 953
HEIGHT 1
VIEWPOINT 0 0 0 1 0 0 0
POINTS 953
DATA ascii
-2.2065234 -3.976845 -4.1723251e-06 1.4290323e-38
-2.1950951 -3.976845 -4.1723251e-06 1.4290323e-38
-2.1836667 -3.976845 -4.1723251e-06 1.4290323e-38
-2.1760495 -3.9768476 -5.2452087e-06 1.4290323e-38
-2.1646211 -3.9768476 -5.2452087e-06 1.4290323e-38
-2.1531928 -3.9768476 -5.2452087e-06 1.4290323e-38
-2.1455739 -3.9768476 -5.2452087e-06 1.4290323e-38
-2.1341453 -3.9768474 -5.1259995e-06 1.4290323e-38
-2.1227169 -3.9768474 -5.1259995e-06 1.4290323e-38
-2.115098 -3.9768474 -5.1259995e-06 1.4290323e-38
-2.1074791 -3.9768474 -5.1259995e-06 1.4290323e-38
-2.0960507 -3.9768474 -5.1259995e-06 1.4290323e-38
-2.0846226 -3.9768474 -5.1259995e-06 1.4290323e-38
-2.0770037 -3.9768474 -5.1259995e-06 1.4290323e-38
-2.0655754 -3.9768474 -5.1259995e-06 1.4290323e-38
-2.054147 -3.9768474 -5.1259995e-06 1.4290323e-38
-2.0465281 -3.9768474 -5.1259995e-06 1.4290323e-38
-2.0350997 -3.9768474 -5.1259995e-06 1.4290323e-38
-2.0236714 -3.9768474 -5.1259995e-06 1.4290323e-38
-2.0160525 -3.9768474 -5.1259995e-06 1.4290323e-38
-2.0046241 -3.9768474 -5.1259995e-06 1.4290323e-38
-1.9931959 -3.9768474 -5.1259995e-06 1.4290323e-38
-1.985577 -3.9768469 -4.8875809e-06 1.4290323e-38
-1.9741485 -3.9768469 -4.8875809e-06 1.4290323e-38
-1.9627202 -3.9768469 -4.8875809e-06 1.4290323e-38
-1.9551014 -3.9768469 -4.8875809e-06 1.4290323e-38
-1.9474825 -3.9768469 -4.8875809e-06 1.4290323e-38
-1.9360541 -3.9768469 -4.8875809e-06 1.4290323e-38
-1.9246258 -3.9768469 -4.8875809e-06 1.4290323e-38
-1.9170069 -3.9768469 -4.8875809e-06 1.4290323e-38
-1.9055786 -3.9768469 -4.8875809e-06 1.4290323e-38
-1.8941503 -3.9768469 -4.8875809e-06 1.4290323e-38
-1.8865314 -3.9768469 -4.8875809e-06 1.4290323e-38
-1.875103 -3.9768469 -4.8875809e-06 1.4290323e-38
-1.8636746 -3.9768469 -4.8875809e-06 1.4290323e-38
-1.8560557 -3.9768469 -4.8875809e-06 1.4290323e-38
-1.8446275 -3.9768469 -4.8875809e-06 1.4290323e-38
-1.8331989 -3.9768465 -4.6491623e-06 1.4290323e-38
-1.82558 -3.9768465 -4.6491623e-06 1.4290323e-38
-1.8141516 -3.9768465 -4.6491623e-06 1.4290323e-38
-1.8027234 -3.9768465 -4.6491623e-06 1.4290323e-38
-1.7951045 -3.9768465 -4.6491623e-06 1.4290323e-38
-1.7874856 -3.9768465 -4.6491623e-06 1.4290323e-38
-1.7798667 -3.9768465 -4.6491623e-06 1.4290323e-38
1.7324396 -3.9768455 -4.2915344e-06 1.1152766e-38
1.7438679 -3.9768455 -4.2915344e-06 1.4290323e-38
1.7552962 -3.9768455 -4.2915344e-06 1.4290323e-38
1.7629151 -3.9768455 -4.2915344e-06 1.4290323e-38
1.7743435 -3.9768455 -4.2915344e-06 1.4290323e-38
1.7857717 -3.9768455 -4.2915344e-06 1.4290323e-38
1.7933906 -3.9768455 -4.2915344e-06 1.4290323e-38
1.804819 -3.9768455 -4.2915344e-06 1.4290323e-38
1.8162473 -3.9768455 -4.2915344e-06 1.4290323e-38
1.8238662 -3.9768455 -4.2915344e-06 1.4290323e-38
1.8352945 -3.9768455 -4.2915344e-06 1.4290323e-38
1.8467228 -3.9768455 -4.2915344e-06 1.4290323e-38
1.8543417 -3.9768455 -4.2915344e-06 1.4290323e-38
1.8657701 -3.9768455 -4.2915344e-06 1.4290323e-38
1.8771982 -3.976845 -4.1723251e-06 1.4290323e-38
1.8848171 -3.976845 -4.1723251e-06 1.4290323e-38
1.8924359 -3.976845 -4.1723251e-06 1.4290323e-38
1.9038643 -3.976845 -4.1723251e-06 1.4290323e-38
1.9152926 -3.976845 -4.1723251e-06 1.4290323e-38
1.9229115 -3.976845 -4.1723251e-06 1.4290323e-38
1.9343398 -3.976845 -4.1723251e-06 1.4290323e-38
1.9457681 -3.976845 -4.1723251e-06 1.4290323e-38
1.953387 -3.976845 -4.1723251e-06 1.4290323e-38
1.9648154 -3.976845 -4.1723251e-06 1.4290323e-38
1.9762437 -3.976845 -4.1723251e-06 1.4290323e-38
1.9838625 -3.976845 -4.1723251e-06 1.4290323e-38
1.9952909 -3.976845 -4.1723251e-06 1.4290323e-38
2.0067194 -3.976845 -4.1723251e-06 1.4290323e-38
2.0143383 -3.976845 -4.1723251e-06 1.4290323e-38
2.0257664 -3.9768445 -3.9339066e-06 1.4290323e-38
2.0371947 -3.9768445 -3.9339066e-06 1.4290323e-38
2.0448136 -3.9768445 -3.9339066e-06 1.4290323e-38
2.0524323 -3.9768445 -3.9339066e-06 1.4290323e-38
2.0638607 -3.9768445 -3.9339066e-06 1.4290323e-38
2.075289 -3.9768445 -3.9339066e-06 1.4290323e-38
2.0829079 -3.9768445 -3.9339066e-06 1.4290323e-38
2.0943363 -3.9768445 -3.9339066e-06 1.4290323e-38
2.1057646 -3.9768445 -3.9339066e-06 1.4290323e-38
2.1133835 -3.9768445 -3.9339066e-06 1.4290323e-38
2.1248119 -3.9768445 -3.9339066e-06 1.4290323e-38
2.1362402 -3.9768445 -3.9339066e-06 1.4290323e-38
2.1438589 -3.9768445 -3.9339066e-06 1.4290323e-38
2.1552873 -3.9768445 -3.9339066e-06 1.4290323e-38
2.1667168 -3.9768469 -4.8875809e-06 1.4290323e-38
2.1743357 -3.9768469 -4.8875809e-06 1.4290323e-38
2.1857641 -3.9768469 -4.8875809e-06 1.4290323e-38
2.1971924 -3.9768469 -4.8875809e-06 1.4290323e-38
2.2048113 -3.9768469 -4.8875809e-06 1.4290323e-38
2.2124302 -3.9768469 -4.8875809e-06 1.4290323e-38
2.2238586 -3.9768469 -4.8875809e-06 1.4290323e-38
2.235287 -3.9768469 -4.8875809e-06 1.4290323e-38
2.2429054 -3.9768465 -4.6491623e-06 1.4290323e-38
2.2543337 -3.9768465 -4.6491623e-06 1.4290323e-38
2.2657621 -3.9768465 -4.6491623e-06 1.4290323e-38
2.273381 -3.9768465 -4.6491623e-06 1.4290323e-38
2.2848094 -3.9768465 -4.6491623e-06 1.4290323e-38
2.2962377 -3.9768465 -4.6491623e-06 1.4290323e-38
2.3038566 -3.9768465 -4.6491623e-06 1.4290323e-38
2.315285 -3.9768465 -4.6491623e-06 1.4290323e-38
2.3267133 -3.9768465 -4.6491623e-06 1.4290323e-38
2.3343322 -3.9768465 -4.6491623e-06 1.4290323e-38
2.3457603 -3.9768465 -4.6491623e-06 1.4290323e-38
2.3571887 -3.9768465 -4.6491623e-06 1.4290323e-38
2.3648076 -3.9768465 -4.6491623e-06 1.4290323e-38
2.3724265 -3.9768465 -4.6491623e-06 1.4290323e-38
2.3838549 -3.9768465 -4.6491623e-06 1.4290323e-38
2.395283 -3.9768457 -4.529953e-06 1.4290323e-38
2.4029019 -3.9768457 -4.529953e-06 1.4290323e-38
2.4143302 -3.9768457 -4.529953e-06 1.4290323e-38
2.4257586 -3.9768457 -4.529953e-06 1.4290323e-38
2.4333773 -3.9768457 -4.529953e-06 1.4290323e-38
2.4448056 -3.9768457 -4.529953e-06 1.4290323e-38
2.456234 -3.9768457 -4.529953e-06 1.4290323e-38
-2.402226 -3.9570639 -2.8610229e-06 1.4290323e-38
-2.3946385 -3.9570639 -2.8610229e-06 1.4290323e-38
-2.3870509 -3.9570639 -2.8610229e-06 1.4290323e-38
-2.3756711 -3.9570663 -3.9339066e-06 1.4290323e-38
-2.3642912 -3.9570687 -5.0067902e-06 1.4290323e-38
-2.3567038 -3.9570687 -5.0067902e-06 1.4290323e-38
-2.3453221 -3.9570687 -5.0067902e-06 1.4290323e-38
-2.333941 -3.9570687 -5.0067902e-06 1.4290323e-38
-2.3263533 -3.9570687 -5.0067902e-06 1.4290323e-38
-2.3149719 -3.9570682 -4.8875809e-06 1.4290323e-38
-2.3035903 -3.9570682 -4.8875809e-06 1.4290323e-38
-2.2960029 -3.9570682 -4.8875809e-06 1.4290323e-38
-2.2846215 -3.9570682 -4.8875809e-06 1.4290323e-38
-2.2732401 -3.9570682 -4.8875809e-06 1.4290323e-38
-2.2656524 -3.9570682 -4.8875809e-06 1.4290323e-38
-2.254271 -3.9570682 -4.8875809e-06 1.4290323e-38
-2.2428899 -3.9570682 -4.8875809e-06 1.4290323e-38
-2.2353022 -3.9570682 -4.8875809e-06 1.4290323e-38
-2.2239208 -3.9570682 -4.8875809e-06 1.4290323e-38
-2.2125394 -3.9570682 -4.8875809e-06 1.4290323e-38
-2.204952 -3.9570682 -4.8875809e-06 1.4290323e-38
-2.1973643 -3.9570682 -4.8875809e-06 1.4290323e-38
-2.1859832 -3.9570682 -4.8875809e-06 1.4290323e-38
-2.1746018 -3.9570682 -4.8875809e-06 1.4290323e-38
-2.1670139 -3.9570677 -4.6491623e-06 1.4290323e-38
-2.155632 -3.9570668 -4.1723251e-06 1.4290323e-38
-2.1442499 -3.9570658 -3.695488e-06 1.4290323e-38
-2.1366622 -3.9570658 -3.695488e-06 1.4290323e-38
-2.1252809 -3.9570658 -3.695488e-06 1.4290323e-38
-2.1138997 -3.9570658 -3.695488e-06 1.4290323e-38
-2.106312 -3.9570658 -3.695488e-06 1.4290323e-38
-2.0949306 -3.9570656 -3.5762787e-06 1.4290323e-38
-2.0835493 -3.9570651 -3.4570694e-06 1.4290323e-38
-2.0759616 -3.9570651 -3.4570694e-06 1.4290323e-38
-2.0645802 -3.9570651 -3.4570694e-06 1.4290323e-38
-2.0532002 -3.9570677 -4.6491623e-06 1.4290323e-38
-2.0456128 -3.9570677 -4.6491623e-06 1.4290323e-38
-2.0342314 -3.9570677 -4.6491623e-06 1.4290323e-38
-2.0228498 -3.9570675 -4.4107437e-06 1.4290323e-38
-2.0152621 -3.9570675 -4.4107437e-06 1.4290323e-38
-2.003881 -3.9570675 -4.4107437e-06 1.4290323e-38
-1.9924997 -3.9570675 -4.4107437e-06 1.4290323e-38
-1.984912 -3.9570675 -4.4107437e-06 1.4290323e-38
-1.9773245 -3.9570675 -4.4107437e-06 1.4290323e-38
-1.9659431 -3.9570675 -4.4107437e-06 1.4290323e-38
-1.9545618 -3.9570675 -4.4107437e-06 1.4290323e-38
-1.9469743 -3.9570675 -4.4107437e-06 1.4290323e-38
-1.9355929 -3.9570675 -4.4107437e-06 1.4290323e-38
-1.9242115 -3.9570675 -4.4107437e-06 1.4290323e-38
-1.916624 -3.9570675 -4.4107437e-06 1.4290323e-38
-1.9052427 -3.9570675 -4.4107437e-06 1.4290323e-38
-1.8938613 -3.9570675 -4.4107437e-06 1.4290323e-38
-1.8862736 -3.9570675 -4.4107437e-06 1.4290323e-38
-1.8748922 -3.9570673 -4.2915344e-06 1.4290323e-38
-1.8635107 -3.957067 -4.1723251e-06 1.4290323e-38
-1.8559232 -3.957067 -4.1723251e-06 1.4290323e-38
-1.8445418 -3.957067 -4.1723251e-06 1.4290323e-38
-1.8331605 -3.957067 -4.1723251e-06 1.4290323e-38
-1.825573 -3.957067 -4.1723251e-06 1.4290323e-38
-1.8141916 -3.957067 -4.1723251e-06 1.4290323e-38
-1.8028102 -3.957067 -4.1723251e-06 1.4290323e-38
-1.7952226 -3.957067 -4.1723251e-06 1.4290323e-38
-1.7838414 -3.957067 -4.1723251e-06 1.4290323e-38
1.7329974 -3.9570687 -5.0067902e-06 1.1060572e-38
1.7443788 -3.9570687 -5.0067902e-06 1.4290323e-38
1.7557601 -3.9570687 -5.0067902e-06 1.4290323e-38
1.7633475 -3.9570682 -4.8875809e-06 1.4290323e-38
1.7747288 -3.9570682 -4.8875809e-06 1.4290323e-38
1.7861102 -3.9570682 -4.8875809e-06 1.4290323e-38
1.7936977 -3.9570682 -4.8875809e-06 1.4290323e-38
1.8050804 -3.9570711 -5.9604645e-06 1.4290323e-38
1.8164617 -3.9570711 -5.9604645e-06 1.4290323e-38
1.8240492 -3.9570711 -5.9604645e-06 1.4290323e-38
1.8354305 -3.9570708 -5.9008598e-06 1.4290323e-38
1.8468118 -3.9570706 -5.8412552e-06 1.4290323e-38
1.8543993 -3.9570706 -5.8412552e-06 1.4290323e-38
1.8657807 -3.9570706 -5.8412552e-06 1.4290323e-38
1.8771621 -3.9570706 -5.8412552e-06 1.4290323e-38
1.8847497 -3.9570706 -5.8412552e-06 1.4290323e-38
1.896131 -3.9570706 -5.8412552e-06 1.4290323e-38
1.9075124 -3.9570706 -5.8412552e-06 1.4290323e-38
1.9151 -3.9570706 -5.8412552e-06 1.4290323e-38
1.9226875 -3.9570706 -5.8412552e-06 1.4290323e-38
1.9340689 -3.9570706 -5.8412552e-06 1.4290323e-38
1.9454503 -3.9570706 -5.8412552e-06 1.4290323e-38
1.9530379 -3.9570706 -5.8412552e-06 1.4290323e-38
1.9644191 -3.9570706 -5.8412552e-06 1.4290323e-38
1.9758005 -3.9570706 -5.8412552e-06 1.4290323e-38
1.9833879 -3.9570701 -5.6028366e-06 1.4290323e-38
1.9947693 -3.9570701 -5.6028366e-06 1.4290323e-38
2.0061507 -3.9570701 -5.6028366e-06 1.4290323e-38
2.0137382 -3.9570701 -5.6028366e-06 1.4290323e-38
2.0251198 -3.9570701 -5.6028366e-06 1.4290323e-38
2.0365009 -3.9570701 -5.6028366e-06 1.4290323e-38
2.0440886 -3.9570701 -5.6028366e-06 1.4290323e-38
2.05547 -3.9570701 -5.6028366e-06 1.4290323e-38
2.0668514 -3.9570701 -5.6028366e-06 1.4290323e-38
2.0744388 -3.9570701 -5.6028366e-06 1.4290323e-38
2.0858202 -3.9570701 -5.6028366e-06 1.4290323e-38
2.0972016 -3.9570701 -5.6028366e-06 1.4290323e-38
2.1047893 -3.9570701 -5.6028366e-06 1.4290323e-38
2.1161704 -3.9570701 -5.6028366e-06 1.4290323e-38
2.127552 -3.9570701 -5.6028366e-06 1.4290323e-38
2.1351392 -3.9570696 -5.364418e-06 1.4290323e-38
2.1427269 -3.9570696 -5.364418e-06 1.4290323e-38
2.154108 -3.9570696 -5.364418e-06 1.4290323e-38
2.1654897 -3.9570696 -5.364418e-06 1.4290323e-38
2.1730771 -3.9570696 -5.364418e-06 1.4290323e-38
2.1844585 -3.9570696 -5.364418e-06 1.4290323e-38
2.1958399 -3.9570696 -5.364418e-06 1.4290323e-38
2.2034273 -3.9570696 -5.364418e-06 1.4290323e-38
2.2148089 -3.9570696 -5.364418e-06 1.4290323e-38
2.2261901 -3.9570696 -5.364418e-06 1.4290323e-38
2.2337778 -3.9570696 -5.364418e-06 1.4290323e-38
2.2451591 -3.9570696 -5.364418e-06 1.4290323e-38
2.2565405 -3.9570696 -5.364418e-06 1.4290323e-38
2.264128 -3.9570696 -5.364418e-06 1.4290323e-38
2.2755094 -3.9570694 -5.2452087e-06 1.4290323e-38
2.2868905 -3.9570692 -5.1259995e-06 1.4290323e-38
2.2944779 -3.9570692 -5.1259995e-06 1.4290323e-38
2.3058596 -3.9570692 -5.1259995e-06 1.4290323e-38
2.3172407 -3.9570692 -5.1259995e-06 1.4290323e-38
2.3248284 -3.9570692 -5.1259995e-06 1.4290323e-38
2.3324158 -3.9570692 -5.1259995e-06 1.4290323e-38
2.3437972 -3.9570692 -5.1259995e-06 1.4290323e-38
2.3551786 -3.9570692 -5.1259995e-06 1.4290323e-38
2.3627663 -3.9570692 -5.1259995e-06 1.4290323e-38
2.3741474 -3.9570692 -5.1259995e-06 1.4290323e-38
2.3855288 -3.9570692 -5.1259995e-06 1.4290323e-38
2.3931165 -3.9570692 -5.1259995e-06 1.4290323e-38
2.4044979 -3.9570692 -5.1259995e-06 1.4290323e-38
2.4158792 -3.9570692 -5.1259995e-06 1.4290323e-38
2.4234667 -3.9570692 -5.1259995e-06 1.4290323e-38
2.4348478 -3.9570687 -5.0067902e-06 1.4290323e-38
2.4462292 -3.9570687 -5.0067902e-06 1.4290323e-38
-2.3923056 -3.9374526 -4.8875809e-06 1.4290323e-38
-2.3847492 -3.9374526 -4.8875809e-06 1.4290323e-38
-2.3771925 -3.9374526 -4.8875809e-06 1.4290323e-38
-2.3658578 -3.9374526 -4.8875809e-06 1.4290323e-38
-2.3545229 -3.9374526 -4.8875809e-06 1.4290323e-38
-2.3469665 -3.9374526 -4.8875809e-06 1.4290323e-38
-2.3356318 -3.9374526 -4.8875809e-06 1.4290323e-38
-2.324297 -3.9374526 -4.8875809e-06 1.4290323e-38
-2.3167405 -3.9374526 -4.8875809e-06 1.4290323e-38
-2.3054056 -3.9374526 -4.8875809e-06 1.4290323e-38
-2.294071 -3.9374526 -4.8875809e-06 1.4290323e-38
-2.2865145 -3.9374526 -4.8875809e-06 1.4290323e-38
-2.2751796 -3.9374526 -4.8875809e-06 1.4290323e-38
-2.263845 -3.9374526 -4.8875809e-06 1.4290323e-38
-2.2562854 -3.9374478 -2.9802322e-06 1.4290323e-38
-2.2449505 -3.9374473 -2.8610229e-06 1.4290323e-38
-2.2336185 -3.9374521 -4.7683716e-06 1.4290323e-38
-2.2260621 -3.9374521 -4.7683716e-06 1.4290323e-38
-2.2147274 -3.9374521 -4.7683716e-06 1.4290323e-38
-2.2033925 -3.9374521 -4.7683716e-06 1.4290323e-38
-2.1958361 -3.9374521 -4.7683716e-06 1.4290323e-38
-2.1845012 -3.9374521 -4.7683716e-06 1.4290323e-38
-2.1731665 -3.9374521 -4.7683716e-06 1.4290323e-38
-2.1656101 -3.9374521 -4.7683716e-06 1.4290323e-38
-2.1542752 -3.9374521 -4.7683716e-06 1.4290323e-38
-2.1429405 -3.9374521 -4.7683716e-06 1.4290323e-38
-2.1353853 -3.9374545 -5.7220459e-06 1.4290323e-38
-2.1240504 -3.9374545 -5.7220459e-06 1.4290323e-38
-2.1127157 -3.9374545 -5.7220459e-06 1.4290323e-38
-2.105159 -3.9374545 -5.7220459e-06 1.4290323e-38
-2.0938244 -3.9374545 -5.7220459e-06 1.4290323e-38
-2.0824895 -3.9374545 -5.7220459e-06 1.4290323e-38
-2.0749331 -3.9374545 -5.7220459e-06 1.4290323e-38
-2.0673766 -3.9374545 -5.7220459e-06 1.4290323e-38
-2.0560417 -3.9374545 -5.7220459e-06 1.4290323e-38
-2.0447071 -3.9374545 -5.7220459e-06 1.4290323e-38
-2.0371504 -3.9374545 -5.7220459e-06 1.4290323e-38
-2.0258155 -3.9374537 -5.4836273e-06 1.4290323e-38
-2.0144806 -3.9374537 -5.4836273e-06 1.4290323e-38
-2.0069242 -3.9374537 -5.4836273e-06 1.4290323e-38
-1.9955895 -3.9374537 -5.4836273e-06 1.4290323e-38
-1.9842547 -3.9374537 -5.4836273e-06 1.4290323e-38
-1.9766983 -3.9374537 -5.4836273e-06 1.4290323e-38
-1.9653635 -3.9374537 -5.4836273e-06 1.4290323e-38
-1.9540287 -3.9374537 -5.4836273e-06 1.4290323e-38
-1.9464722 -3.9374537 -5.4836273e-06 1.4290323e-38
-1.9351375 -3.9374537 -5.4836273e-06 1.4290323e-38
-1.9238026 -3.9374537 -5.4836273e-06 1.4290323e-38
-1.9162462 -3.9374537 -5.4836273e-06 1.4290323e-38
-1.9049113 -3.9374537 -5.4836273e-06 1.4290323e-38
-1.8935766 -3.9374537 -5.4836273e-06 1.4290323e-38
-1.8860201 -3.9374537 -5.4836273e-06 1.4290323e-38
-1.874685 -3.9374533 -5.364418e-06 1.4290323e-38
-1.8633503 -3.9374533 -5.364418e-06 1.4290323e-38
-1.8557938 -3.9374533 -5.364418e-06 1.4290323e-38
-1.8444591 -3.9374533 -5.364418e-06 1.4290323e-38
-1.8331243 -3.9374533 -5.364418e-06 1.4290323e-38
-1.8255677 -3.9374533 -5.364418e-06 1.4290323e-38
-1.8142329 -3.9374533 -5.364418e-06 1.4290323e-38
-1.8028982 -3.9374533 -5.364418e-06 1.4290323e-38
-1.7953417 -3.9374533 -5.364418e-06 1.4290323e-38
-1.7840068 -3.9374533 -5.364418e-06 1.4290323e-38
-1.7726722 -3.9374533 -5.364418e-06 1.1061295e-38
1.733549 -3.9374504 -4.1723251e-06 1.1060572e-38
1.7448838 -3.9374504 -4.1723251e-06 1.4290323e-38
1.7562183 -3.9374497 -3.9339066e-06 1.4290323e-38
1.7637749 -3.9374497 -3.9339066e-06 1.4290323e-38
1.7751096 -3.9374497 -3.9339066e-06 1.4290323e-38
1.7864444 -3.9374497 -3.9339066e-06 1.4290323e-38
1.7940009 -3.9374497 -3.9339066e-06 1.4290323e-38
1.8053356 -3.9374497 -3.9339066e-06 1.4290323e-38
1.8166704 -3.9374497 -3.9339066e-06 1.4290323e-38
1.824227 -3.9374497 -3.9339066e-06 1.4290323e-38
1.8355618 -3.9374497 -3.9339066e-06 1.4290323e-38
1.8468964 -3.9374497 -3.9339066e-06 1.4290323e-38
1.854453 -3.9374497 -3.9339066e-06 1.4290323e-38
1.8657877 -3.9374497 -3.9339066e-06 1.4290323e-38
1.8771225 -3.9374497 -3.9339066e-06 1.4290323e-38
1.884679 -3.9374497 -3.9339066e-06 1.4290323e-38
1.8960137 -3.9374497 -3.9339066e-06 1.4290323e-38
1.9073483 -3.9374495 -3.8146973e-06 1.4290323e-38
1.9149048 -3.9374495 -3.8146973e-06 1.4290323e-38
1.9224613 -3.9374495 -3.8146973e-06 1.4290323e-38
1.933796 -3.9374495 -3.8146973e-06 1.4290323e-38
1.9451308 -3.9374495 -3.8146973e-06 1.4290323e-38
1.9526874 -3.9374495 -3.8146973e-06 1.4290323e-38
1.9640222 -3.9374495 -3.8146973e-06 1.4290323e-38
1.9753568 -3.9374495 -3.8146973e-06 1.4290323e-38
1.9829134 -3.9374495 -3.8146973e-06 1.4290323e-38
1.9942482 -3.9374495 -3.8146973e-06 1.4290323e-38
2.0055828 -3.9374495 -3.8146973e-06 1.4290323e-38
2.0131395 -3.9374495 -3.8146973e-06 1.4290323e-38
2.0244741 -3.9374495 -3.8146973e-06 1.4290323e-38
2.035809 -3.9374495 -3.8146973e-06 1.4290323e-38
2.0433655 -3.9374495 -3.8146973e-06 1.4290323e-38
2.0547001 -3.9374492 -3.695488e-06 1.4290323e-38
2.0660348 -3.937449 -3.5762787e-06 1.4290323e-38
2.0735912 -3.937449 -3.5762787e-06 1.4290323e-38
2.0849261 -3.937449 -3.5762787e-06 1.4290323e-38
2.0962608 -3.937449 -3.5762787e-06 1.4290323e-38
2.1038172 -3.937449 -3.5762787e-06 1.4290323e-38
2.1151521 -3.937449 -3.5762787e-06 1.4290323e-38
2.1264868 -3.937449 -3.5762787e-06 1.4290323e-38
2.1340435 -3.937449 -3.5762787e-06 1.4290323e-38
2.1453781 -3.937449 -3.5762787e-06 1.4290323e-38
2.1567128 -3.937449 -3.5762787e-06 1.4290323e-38
2.1642694 -3.937449 -3.5762787e-06 1.4290323e-38
2.1756041 -3.937449 -3.5762787e-06 1.4290323e-38
2.186939 -3.937449 -3.5762787e-06 1.4290323e-38
2.1944966 -3.9374514 -4.6491623e-06 1.4290323e-38
2.2058315 -3.9374514 -4.6491623e-06 1.4290323e-38
2.2171662 -3.9374514 -4.6491623e-06 1.4290323e-38
2.2247226 -3.9374514 -4.6491623e-06 1.4290323e-38
2.2360575 -3.9374514 -4.6491623e-06 1.4290323e-38
2.2473922 -3.9374514 -4.6491623e-06 1.4290323e-38
2.2549486 -3.9374514 -4.6491623e-06 1.4290323e-38
2.2625053 -3.9374514 -4.6491623e-06 1.4290323e-38
2.27384 -3.9374511 -4.529953e-06 1.4290323e-38
2.2851746 -3.9374509 -4.4107437e-06 1.4290323e-38
2.292731 -3.9374509 -4.4107437e-06 1.4290323e-38
2.3040657 -3.9374509 -4.4107437e-06 1.4290323e-38
2.3154006 -3.9374509 -4.4107437e-06 1.4290323e-38
2.322957 -3.9374509 -4.4107437e-06 1.4290323e-38
2.3342919 -3.9374509 -4.4107437e-06 1.4290323e-38
2.3456266 -3.9374509 -4.4107437e-06 1.4290323e-38
2.353183 -3.9374509 -4.4107437e-06 1.4290323e-38
2.3645177 -3.9374509 -4.4107437e-06 1.4290323e-38
2.3758526 -3.9374509 -4.4107437e-06 1.4290323e-38
2.383409 -3.9374509 -4.4107437e-06 1.4290323e-38
2.3947439 -3.9374509 -4.4107437e-06 1.4290323e-38
2.4060786 -3.9374509 -4.4107437e-06 1.4290323e-38
2.4136353 -3.9374509 -4.4107437e-06 1.4290323e-38
2.4249697 -3.9374504 -4.1723251e-06 1.4290323e-38
2.4363043 -3.9374504 -4.1723251e-06 1.4290323e-38
-2.3824637 -3.9179974 -5.4836273e-06 1.4290323e-38
-2.3749352 -3.9179926 -3.4570694e-06 1.4290323e-38
-2.3674095 -3.9179926 -3.4570694e-06 1.4290323e-38
-2.3561211 -3.9179926 -3.4570694e-06 1.4290323e-38
-2.3448322 -3.9179926 -3.4570694e-06 1.4290323e-38
-2.3373065 -3.9179926 -3.4570694e-06 1.4290323e-38
-2.3260179 -3.9179926 -3.4570694e-06 1.4290323e-38
-2.3147295 -3.9179926 -3.4570694e-06 1.4290323e-38
-2.3072038 -3.9179926 -3.4570694e-06 1.4290323e-38
-2.2959151 -3.9179921 -3.3378601e-06 1.4290323e-38
-2.2846265 -3.9179921 -3.3378601e-06 1.4290323e-38
-2.2771008 -3.9179921 -3.3378601e-06 1.4290323e-38
-2.2658124 -3.9179921 -3.3378601e-06 1.4290323e-38
-2.2545238 -3.9179921 -3.3378601e-06 1.4290323e-38
-2.2469978 -3.9179921 -3.3378601e-06 1.4290323e-38
-2.2357106 -3.9179945 -4.3511391e-06 1.4290323e-38
-2.2244236 -3.9179969 -5.364418e-06 1.4290323e-38
-2.216898 -3.9179969 -5.364418e-06 1.4290323e-38
-2.2056093 -3.9179969 -5.364418e-06 1.4290323e-38
-2.1943209 -3.9179969 -5.364418e-06 1.4290323e-38
-2.1867952 -3.9179969 -5.364418e-06 1.4290323e-38
-2.1755066 -3.9179969 -5.364418e-06 1.4290323e-38
-2.1642179 -3.9179969 -5.364418e-06 1.4290323e-38
-2.156692 -3.9179966 -5.2452087e-06 1.4290323e-38
-2.1454034 -3.9179966 -5.2452087e-06 1.4290323e-38
-2.134115 -3.9179966 -5.2452087e-06 1.4290323e-38
-2.1265893 -3.9179966 -5.2452087e-06 1.4290323e-38
-2.1152992 -3.917994 -4.2319298e-06 1.4290323e-38
-2.1040094 -3.9179916 -3.2186508e-06 1.4290323e-38
-2.0964837 -3.9179916 -3.2186508e-06 1.4290323e-38
-2.0851951 -3.9179916 -3.2186508e-06 1.4290323e-38
-2.0739067 -3.9179916 -3.2186508e-06 1.4290323e-38
-2.066381 -3.9179916 -3.2186508e-06 1.4290323e-38
-2.0550923 -3.9179916 -3.2186508e-06 1.4290323e-38
-2.0438039 -3.9179916 -3.2186508e-06 1.4290323e-38
-2.0362782 -3.9179916 -3.2186508e-06 1.4290323e-38
-2.0249896 -3.9179916 -3.2186508e-06 1.4290323e-38
-2.013701 -3.9179916 -3.2186508e-06 1.4290323e-38
-2.006175 -3.9179914 -2.9802322e-06 1.4290323e-38
-1.9948874 -3.9179926 -3.516674e-06 1.4290323e-38
-1.9835995 -3.917994 -4.0531158e-06 1.4290323e-38
-1.9760739 -3.917994 -4.0531158e-06 1.4290323e-38
-1.9647853 -3.917994 -4.0531158e-06 1.4290323e-38
-1.9534967 -3.917994 -4.0531158e-06 1.4290323e-38
-1.945971 -3.917994 -4.0531158e-06 1.4290323e-38
-1.9346824 -3.9179935 -3.9935112e-06 1.4290323e-38
-1.9233937 -3.9179933 -3.9339066e-06 1.4290323e-38
-1.915868 -3.9179933 -3.9339066e-06 1.4290323e-38
-1.9045794 -3.9179933 -3.9339066e-06 1.4290323e-38
-1.8932909 -3.9179933 -3.9339066e-06 1.4290323e-38
-1.8857652 -3.9179933 -3.9339066e-06 1.4290323e-38
-1.8744767 -3.9179933 -3.9339066e-06 1.4290323e-38
-1.8631881 -3.9179933 -3.9339066e-06 1.4290323e-38
-1.8556623 -3.9179933 -3.9339066e-06 1.4290323e-38
-1.8443738 -3.9179933 -3.9339066e-06 1.4290323e-38
-1.8330853 -3.9179933 -3.9339066e-06 1.4290323e-38
-1.8255596 -3.9179933 -3.9339066e-06 1.4290323e-38
-1.814271 -3.9179933 -3.9339066e-06 1.4290323e-38
-1.8029824 -3.9179933 -3.9339066e-06 1.4290323e-38
-1.7954568 -3.9179933 -3.9339066e-06 1.4290323e-38
-1.784168 -3.9179931 -3.695488e-06 1.4290323e-38
-1.7728795 -3.9179931 -3.695488e-06 1.1061295e-38
1.7340965 -3.9179926 -3.4570694e-06 1.1152766e-38
1.7453851 -3.9179926 -3.4570694e-06 1.4290323e-38
1.7566736 -3.9179926 -3.4570694e-06 1.4290323e-38
1.7641993 -3.9179926 -3.4570694e-06 1.4290323e-38
1.7754877 -3.9179924 -3.3974648e-06 1.4290323e-38
1.7867762 -3.9179921 -3.3378601e-06 1.4290323e-38
1.7943019 -3.9179921 -3.3378601e-06 1.4290323e-38
1.8055904 -3.9179921 -3.3378601e-06 1.4290323e-38
1.816879 -3.9179921 -3.3378601e-06 1.4290323e-38
1.8244047 -3.9179921 -3.3378601e-06 1.4290323e-38
1.8356944 -3.917995 -4.4107437e-06 1.4290323e-38
1.8469828 -3.9179945 -4.2915344e-06 1.4290323e-38
1.8545085 -3.9179945 -4.2915344e-06 1.4290323e-38
1.865797 -3.9179945 -4.2915344e-06 1.4290323e-38
1.8770857 -3.9179945 -4.2915344e-06 1.4290323e-38
1.8846114 -3.9179945 -4.2915344e-06 1.4290323e-38
1.8958999 -3.9179945 -4.2915344e-06 1.4290323e-38
1.9071884 -3.9179945 -4.2915344e-06 1.4290323e-38
1.9147141 -3.9179945 -4.2915344e-06 1.4290323e-38
1.9260027 -3.9179945 -4.2915344e-06 1.4290323e-38
1.9372913 -3.9179945 -4.2915344e-06 1.4290323e-38
1.9448169 -3.9179945 -4.2915344e-06 1.4290323e-38
1.9561055 -3.9179945 -4.2915344e-06 1.4290323e-38
1.9673941 -3.9179945 -4.2915344e-06 1.4290323e-38
1.9749198 -3.9179945 -4.2915344e-06 1.4290323e-38
1.9862083 -3.9179945 -4.2915344e-06 1.4290323e-38
1.9974966 -3.917994 -4.0531158e-06 1.4290323e-38
2.0050223 -3.917994 -4.0531158e-06 1.4290323e-38
2.0125482 -3.917994 -4.0531158e-06 1.4290323e-38
2.0238366 -3.917994 -4.0531158e-06 1.4290323e-38
2.0351253 -3.917994 -4.0531158e-06 1.4290323e-38
2.0426509 -3.917994 -4.0531158e-06 1.4290323e-38
2.0539393 -3.917994 -4.0531158e-06 1.4290323e-38
2.065228 -3.917994 -4.0531158e-06 1.4290323e-38
2.0727537 -3.917994 -4.0531158e-06 1.4290323e-38
2.0840425 -3.917994 -4.0531158e-06 1.4290323e-38
2.095331 -3.917994 -4.0531158e-06 1.4290323e-38
2.1028566 -3.917994 -4.0531158e-06 1.4290323e-38
2.1141453 -3.917994 -4.0531158e-06 1.4290323e-38
2.1254337 -3.917994 -4.0531158e-06 1.4290323e-38
2.1329594 -3.917994 -4.0531158e-06 1.4290323e-38
2.1442478 -3.9179935 -3.9935112e-06 1.4290323e-38
2.1555362 -3.9179933 -3.9339066e-06 1.4290323e-38
2.1630619 -3.9179933 -3.9339066e-06 1.4290323e-38
2.1743505 -3.9179933 -3.9339066e-06 1.4290323e-38
2.1856391 -3.9179933 -3.9339066e-06 1.4290323e-38
2.1931648 -3.9179933 -3.9339066e-06 1.4290323e-38
2.2044535 -3.9179933 -3.9339066e-06 1.4290323e-38
2.2157419 -3.9179933 -3.9339066e-06 1.4290323e-38
2.2232676 -3.9179933 -3.9339066e-06 1.4290323e-38
2.2345562 -3.9179933 -3.9339066e-06 1.4290323e-38
2.2458446 -3.9179933 -3.9339066e-06 1.4290323e-38
2.2533703 -3.9179933 -3.9339066e-06 1.4290323e-38
2.2646589 -3.9179933 -3.9339066e-06 1.4290323e-38
2.2759476 -3.9179933 -3.9339066e-06 1.4290323e-38
2.2834733 -3.9179933 -3.9339066e-06 1.4290323e-38
2.2947617 -3.9179931 -3.8146973e-06 1.4290323e-38
2.3060501 -3.9179931 -3.695488e-06 1.4290323e-38
2.3135757 -3.9179931 -3.695488e-06 1.4290323e-38
2.3248644 -3.9179931 -3.695488e-06 1.4290323e-38
2.3361528 -3.9179931 -3.695488e-06 1.4290323e-38
2.3436785 -3.9179931 -3.695488e-06 1.4290323e-38
2.3549671 -3.9179931 -3.695488e-06 1.4290323e-38
2.3662555 -3.9179931 -3.695488e-06 1.4290323e-38
2.3737812 -3.9179931 -3.695488e-06 1.4290323e-38
2.3850698 -3.9179931 -3.695488e-06 1.4290323e-38
2.3963585 -3.9179931 -3.695488e-06 1.4290323e-38
2.4038842 -3.9179931 -3.695488e-06 1.4290323e-38
2.4151726 -3.9179931 -3.695488e-06 1.4290323e-38
2.4264612 -3.9179931 -3.695488e-06 1.4290323e-38
-2.3727002 -3.8986979 -5.1259995e-06 1.4290323e-38
-2.3652053 -3.8986979 -5.1259995e-06 1.4290323e-38
-2.3539624 -3.8986979 -5.1259995e-06 1.4290323e-38
-2.3427198 -3.8986979 -5.1259995e-06 1.4290323e-38
-2.3352246 -3.8986979 -5.1259995e-06 1.4290323e-38
-2.3239818 -3.8986974 -4.8875809e-06 1.4290323e-38
-2.3127389 -3.8986974 -4.8875809e-06 1.4290323e-38
-2.3052437 -3.8986974 -4.8875809e-06 1.4290323e-38
-2.2940011 -3.8986974 -4.8875809e-06 1.4290323e-38
-2.2827582 -3.8986974 -4.8875809e-06 1.4290323e-38
-2.2752631 -3.8986974 -4.8875809e-06 1.4290323e-38
-2.2640204 -3.8986974 -4.8875809e-06 1.4290323e-38
-2.2527776 -3.8986974 -4.8875809e-06 1.4290323e-38
-2.2452824 -3.8986974 -4.8875809e-06 1.4290323e-38
-2.2340398 -3.8986974 -4.8875809e-06 1.4290323e-38
-2.2228 -3.8987021 -6.9141388e-06 1.4290323e-38
-2.2153049 -3.8987021 -6.9141388e-06 1.4290323e-38
-2.204062 -3.8987021 -6.9141388e-06 1.4290323e-38
-2.1928194 -3.8987021 -6.9141388e-06 1.4290323e-38
-2.185324 -3.8987019 -6.7949295e-06 1.4290323e-38
-2.1740813 -3.8987019 -6.7949295e-06 1.4290323e-38
-2.1628385 -3.8987019 -6.7949295e-06 1.4290323e-38
-2.1553433 -3.8987019 -6.7949295e-06 1.4290323e-38
-2.1441007 -3.8987019 -6.7949295e-06 1.4290323e-38
-2.1328578 -3.8987019 -6.7949295e-06 1.4290323e-38
-2.1253626 -3.8987019 -6.7949295e-06 1.4290323e-38
-2.11412 -3.8987019 -6.7949295e-06 1.4290323e-38
-2.1028771 -3.8987019 -6.7949295e-06 1.4290323e-38
-2.0953779 -3.8986945 -3.4570694e-06 1.4290323e-38
-2.0841351 -3.8986945 -3.4570694e-06 1.4290323e-38
-2.0728924 -3.8986945 -3.4570694e-06 1.4290323e-38
-2.0653973 -3.8986945 -3.4570694e-06 1.4290323e-38
-2.0541544 -3.8986945 -3.4570694e-06 1.4290323e-38
-2.0429118 -3.8986945 -3.4570694e-06 1.4290323e-38
-2.0354166 -3.8986945 -3.4570694e-06 1.4290323e-38
-2.024174 -3.8986945 -3.4570694e-06 1.4290323e-38
-2.0129313 -3.8986945 -3.4570694e-06 1.4290323e-38
-2.0054362 -3.8986945 -3.4570694e-06 1.4290323e-38
-1.9941936 -3.8986945 -3.4570694e-06 1.4290323e-38
-1.9829508 -3.8986945 -3.4570694e-06 1.4290323e-38
-1.9754556 -3.8986945 -3.4570694e-06 1.4290323e-38
-1.9642129 -3.898694 -3.3974648e-06 1.4290323e-38
-1.95297 -3.8986938 -3.3378601e-06 1.4290323e-38
-1.9454749 -3.8986938 -3.3378601e-06 1.4290323e-38
-1.9342321 -3.8986938 -3.3378601e-06 1.4290323e-38
-1.9229895 -3.8986938 -3.3378601e-06 1.4290323e-38
-1.9154943 -3.8986938 -3.3378601e-06 1.4290323e-38
-1.9042516 -3.8986938 -3.3378601e-06 1.4290323e-38
-1.8930088 -3.8986938 -3.3378601e-06 1.4290323e-38
-1.8855138 -3.8986938 -3.3378601e-06 1.4290323e-38
-1.874271 -3.8986938 -3.3378601e-06 1.4290323e-38
-1.8630283 -3.8986938 -3.3378601e-06 1.4290323e-38
-1.8555331 -3.8986938 -3.3378601e-06 1.4290323e-38
-1.8442905 -3.8986938 -3.3378601e-06 1.4290323e-38
-1.8330477 -3.8986938 -3.3378601e-06 1.4290323e-38
-1.8255526 -3.8986938 -3.3378601e-06 1.4290323e-38
-1.8143098 -3.8986936 -3.2186508e-06 1.4290323e-38
-1.803067 -3.8986933 -3.0994415e-06 1.4290323e-38
-1.7955718 -3.8986933 -3.0994415e-06 1.4290323e-38
-1.7843292 -3.8986933 -3.0994415e-06 1.4290323e-38
-1.7730864 -3.8986933 -3.0994415e-06 1.1060935e-38
1.7346405 -3.8986952 -3.9339066e-06 1.2721545e-38
1.7458832 -3.8986952 -3.9339066e-06 1.4290323e-38
1.757126 -3.8986952 -3.9339066e-06 1.4290323e-38
1.7646211 -3.8986952 -3.9339066e-06 1.4290323e-38
1.7758639 -3.8986952 -3.9339066e-06 1.4290323e-38
1.7871065 -3.8986952 -3.9339066e-06 1.4290323e-38
1.7946017 -3.8986952 -3.9339066e-06 1.4290323e-38
1.8058444 -3.8986952 -3.9339066e-06 1.4290323e-38
1.8170872 -3.8986952 -3.9339066e-06 1.4290323e-38
1.8245821 -3.8986948 -3.695488e-06 1.4290323e-38
1.8358247 -3.8986948 -3.695488e-06 1.4290323e-38
1.8470675 -3.8986948 -3.695488e-06 1.4290323e-38
1.8545626 -3.8986948 -3.695488e-06 1.4290323e-38
1.8658054 -3.8986948 -3.695488e-06 1.4290323e-38
1.877048 -3.8986948 -3.695488e-06 1.4290323e-38
1.8845432 -3.8986948 -3.695488e-06 1.4290323e-38
1.8957859 -3.8986948 -3.695488e-06 1.4290323e-38
1.9070287 -3.8986948 -3.695488e-06 1.4290323e-38
1.9145238 -3.8986948 -3.695488e-06 1.4290323e-38
1.9257665 -3.8986948 -3.695488e-06 1.4290323e-38
1.9370092 -3.8986948 -3.695488e-06 1.4290323e-38
1.9445044 -3.8986948 -3.695488e-06 1.4290323e-38
1.9557471 -3.8986948 -3.695488e-06 1.4290323e-38
1.9669898 -3.8986948 -3.695488e-06 1.4290323e-38
1.9744847 -3.8986945 -3.4570694e-06 1.4290323e-38
1.9857274 -3.8986945 -3.4570694e-06 1.4290323e-38
1.9969702 -3.8986945 -3.4570694e-06 1.4290323e-38
2.0044653 -3.8986945 -3.4570694e-06 1.4290323e-38
2.015708 -3.8986945 -3.4570694e-06 1.4290323e-38
2.0269508 -3.8986945 -3.4570694e-06 1.4290323e-38
2.034446 -3.8986945 -3.4570694e-06 1.4290323e-38
2.0456886 -3.8986945 -3.4570694e-06 1.4290323e-38
2.0569315 -3.8986945 -3.4570694e-06 1.4290323e-38
2.0644267 -3.8986945 -3.4570694e-06 1.4290323e-38
2.0756693 -3.8986945 -3.4570694e-06 1.4290323e-38
2.0869119 -3.8986945 -3.4570694e-06 1.4290323e-38
2.0944071 -3.8986945 -3.4570694e-06 1.4290323e-38
2.1056499 -3.8986945 -3.4570694e-06 1.4290323e-38
2.1168926 -3.8986945 -3.4570694e-06 1.4290323e-38
2.1243875 -3.8986938 -3.3378601e-06 1.4290323e-38
2.1356301 -3.8986938 -3.3378601e-06 1.4290323e-38
2.146873 -3.8986938 -3.3378601e-06 1.4290323e-38
2.1543679 -3.8986938 -3.3378601e-06 1.4290323e-38
2.1656108 -3.8986938 -3.3378601e-06 1.4290323e-38
2.1768534 -3.8986938 -3.3378601e-06 1.4290323e-38
2.1843486 -3.8986938 -3.3378601e-06 1.4290323e-38
2.1955914 -3.8986938 -3.3378601e-06 1.4290323e-38
2.2068341 -3.8986938 -3.3378601e-06 1.4290323e-38
2.2143292 -3.8986938 -3.3378601e-06 1.4290323e-38
2.2255726 -3.898695 -3.8146973e-06 1.4290323e-38
2.2368159 -3.8986962 -4.2915344e-06 1.4290323e-38
2.2443111 -3.8986962 -4.2915344e-06 1.4290323e-38
2.2555537 -3.8986962 -4.2915344e-06 1.4290323e-38
2.2667964 -3.8986962 -4.2915344e-06 1.4290323e-38
2.2742915 -3.8986962 -4.2915344e-06 1.4290323e-38
2.2855344 -3.8986962 -4.2915344e-06 1.4290323e-38
2.296777 -3.8986962 -4.2915344e-06 1.4290323e-38
2.3042722 -3.8986962 -4.2915344e-06 1.4290323e-38
2.315515 -3.8986962 -4.2915344e-06 1.4290323e-38
2.3267577 -3.8986962 -4.2915344e-06 1.4290323e-38
2.3342528 -3.8986962 -4.2915344e-06 1.4290323e-38
2.3454952 -3.8986957 -4.0531158e-06 1.4290323e-38
2.3567379 -3.8986957 -4.0531158e-06 1.4290323e-38
2.364233 -3.8986957 -4.0531158e-06 1.4290323e-38
2.3754759 -3.8986957 -4.0531158e-06 1.4290323e-38
2.3867185 -3.8986957 -4.0531158e-06 1.4290323e-38
2.3942137 -3.8986957 -4.0531158e-06 1.4290323e-38
2.4054565 -3.8986957 -4.0531158e-06 1.4290323e-38
2.4166992 -3.8986957 -4.0531158e-06 1.4290323e-38
-2.3630152 -3.8795536 -4.0531158e-06 1.4290323e-38
-2.3555534 -3.8795583 -6.1988831e-06 1.4290323e-38
-2.3443561 -3.8795583 -6.1988831e-06 1.4290323e-38
-2.3331559 -3.8795536 -4.0531158e-06 1.4290323e-38
-2.3256907 -3.8795531 -3.9339066e-06 1.4290323e-38
-2.3144934 -3.8795531 -3.9339066e-06 1.4290323e-38
-2.3032963 -3.8795531 -3.9339066e-06 1.4290323e-38
-2.2958314 -3.8795531 -3.9339066e-06 1.4290323e-38
-2.2846341 -3.8795531 -3.9339066e-06 1.4290323e-38
-2.2734368 -3.8795531 -3.9339066e-06 1.4290323e-38
-2.2659721 -3.8795531 -3.9339066e-06 1.4290323e-38
-2.2547748 -3.8795531 -3.9339066e-06 1.4290323e-38
-2.2435775 -3.8795531 -3.9339066e-06 1.4290323e-38
-2.2361126 -3.8795531 -3.9339066e-06 1.4290323e-38
-2.2249155 -3.8795531 -3.9339066e-06 1.4290323e-38
-2.2137182 -3.8795531 -3.9339066e-06 1.4290323e-38
-2.2062533 -3.8795531 -3.9339066e-06 1.4290323e-38
-2.1950562 -3.8795531 -3.9339066e-06 1.4290323e-38
-2.1838589 -3.8795531 -3.9339066e-06 1.4290323e-38
-2.1763937 -3.8795526 -3.8146973e-06 1.4290323e-38
-2.1651964 -3.8795526 -3.8146973e-06 1.4290323e-38
-2.1539993 -3.8795526 -3.8146973e-06 1.4290323e-38
-2.1465344 -3.8795526 -3.8146973e-06 1.4290323e-38
-2.1353371 -3.8795526 -3.8146973e-06 1.4290323e-38
-2.12414 -3.8795526 -3.8146973e-06 1.4290323e-38
-2.1166751 -3.8795526 -3.8146973e-06 1.4290323e-38
-2.1054778 -3.8795526 -3.8146973e-06 1.4290323e-38
-2.0942805 -3.8795526 -3.8146973e-06 1.4290323e-38
-2.0868185 -3.8795574 -5.8412552e-06 1.4290323e-38
-2.0756197 -3.8795547 -4.6491623e-06 1.4290323e-38
-2.0644224 -3.8795547 -4.6491623e-06 1.4290323e-38
-2.0569577 -3.8795547 -4.6491623e-06 1.4290323e-38
-2.0457604 -3.8795547 -4.6491623e-06 1.4290323e-38
-2.0345631 -3.8795547 -4.6491623e-06 1.4290323e-38
-2.0270982 -3.8795547 -4.6491623e-06 1.4290323e-38
-2.0159011 -3.8795547 -4.6491623e-06 1.4290323e-38
-2.0047038 -3.8795547 -4.6491623e-06 1.4290323e-38
-1.997239 -3.8795547 -4.6491623e-06 1.4290323e-38
-1.9860417 -3.8795547 -4.6491623e-06 1.4290323e-38
-1.9748445 -3.8795547 -4.6491623e-06 1.4290323e-38
-1.9673797 -3.8795547 -4.6491623e-06 1.4290323e-38
-1.9561822 -3.8795545 -4.529953e-06 1.4290323e-38
-1.9449849 -3.8795543 -4.4107437e-06 1.4290323e-38
-1.9337876 -3.8795543 -4.4107437e-06 1.4290323e-38
-1.9225918 -3.8795569 -5.6028366e-06 1.4290323e-38
-1.9151269 -3.8795569 -5.6028366e-06 1.4290323e-38
-1.9039297 -3.8795569 -5.6028366e-06 1.4290323e-38
-1.8927324 -3.8795569 -5.6028366e-06 1.4290323e-38
-1.8852675 -3.8795569 -5.6028366e-06 1.4290323e-38
-1.87407 -3.8795564 -5.364418e-06 1.4290323e-38
-1.8628728 -3.8795564 -5.364418e-06 1.4290323e-38
-1.855408 -3.8795564 -5.364418e-06 1.4290323e-38
-1.8442106 -3.8795564 -5.364418e-06 1.4290323e-38
-1.8330134 -3.8795564 -5.364418e-06 1.4290323e-38
-1.8255485 -3.8795564 -5.364418e-06 1.4290323e-38
-1.8143513 -3.8795564 -5.364418e-06 1.4290323e-38
-1.803154 -3.8795564 -5.364418e-06 1.4290323e-38
-1.7956892 -3.8795564 -5.364418e-06 1.4290323e-38
-1.784492 -3.8795564 -5.364418e-06 1.4290323e-38
-1.7732947 -3.8795564 -5.364418e-06 1.1060935e-38
1.735181 -3.8795555 -5.0067902e-06 1.2721545e-38
1.7426457 -3.8795555 -5.0067902e-06 1.4290323e-38
1.7538431 -3.8795555 -5.0067902e-06 1.4290323e-38
1.7650403 -3.8795555 -5.0067902e-06 1.4290323e-38
1.7762375 -3.8795555 -5.0067902e-06 1.4290323e-38
1.7874348 -3.8795555 -5.0067902e-06 1.4290323e-38
1.7948997 -3.8795555 -5.0067902e-06 1.4290323e-38
1.8060969 -3.8795555 -5.0067902e-06 1.4290323e-38
1.8172941 -3.8795555 -5.0067902e-06 1.4290323e-38
1.824759 -3.8795555 -5.0067902e-06 1.4290323e-38
1.8359561 -3.8795552 -4.8875809e-06 1.4290323e-38
1.8471533 -3.8795552 -4.8875809e-06 1.4290323e-38
1.8546182 -3.8795552 -4.8875809e-06 1.4290323e-38
1.8658167 -3.8795578 -6.0796738e-06 1.4290323e-38
1.8770139 -3.8795578 -6.0796738e-06 1.4290323e-38
1.8844788 -3.8795578 -6.0796738e-06 1.4290323e-38
1.895676 -3.8795576 -5.9604645e-06 1.4290323e-38
1.9068731 -3.8795574 -5.8412552e-06 1.4290323e-38
1.914338 -3.8795574 -5.8412552e-06 1.4290323e-38
1.9255352 -3.8795574 -5.8412552e-06 1.4290323e-38
1.9367325 -3.8795574 -5.8412552e-06 1.4290323e-38
1.9441973 -3.8795574 -5.8412552e-06 1.4290323e-38
1.9553946 -3.8795574 -5.8412552e-06 1.4290323e-38
1.9665918 -3.8795574 -5.8412552e-06 1.4290323e-38
1.9740567 -3.8795574 -5.8412552e-06 1.4290323e-38
1.985254 -3.8795574 -5.8412552e-06 1.4290323e-38
1.9964513 -3.8795574 -5.8412552e-06 1.4290323e-38
2.0039163 -3.8795574 -5.8412552e-06 1.4290323e-38
2.0151134 -3.8795574 -5.8412552e-06 1.4290323e-38
2.0263107 -3.8795574 -5.8412552e-06 1.4290323e-38
2.0337756 -3.8795574 -5.8412552e-06 1.4290323e-38
2.0449729 -3.8795571 -5.7220459e-06 1.4290323e-38
2.05617 -3.8795569 -5.6028366e-06 1.4290323e-38
2.0636346 -3.8795569 -5.6028366e-06 1.4290323e-38
2.074832 -3.8795569 -5.6028366e-06 1.4290323e-38
2.0860293 -3.8795569 -5.6028366e-06 1.4290323e-38
2.0934942 -3.8795569 -5.6028366e-06 1.4290323e-38
2.1046915 -3.8795569 -5.6028366e-06 1.4290323e-38
2.1158886 -3.8795569 -5.6028366e-06 1.4290323e-38
2.1233535 -3.8795569 -5.6028366e-06 1.4290323e-38
2.1345508 -3.8795569 -5.6028366e-06 1.4290323e-38
2.1457481 -3.8795569 -5.6028366e-06 1.4290323e-38
2.1532128 -3.8795569 -5.6028366e-06 1.4290323e-38
2.1644101 -3.8795569 -5.6028366e-06 1.4290323e-38
2.1756074 -3.8795569 -5.6028366e-06 1.4290323e-38
2.1830723 -3.8795569 -5.6028366e-06 1.4290323e-38
2.1942692 -3.8795567 -5.4836273e-06 1.4290323e-38
2.2054665 -3.8795564 -5.364418e-06 1.4290323e-38
2.2129314 -3.8795564 -5.364418e-06 1.4290323e-38
2.2241287 -3.8795564 -5.364418e-06 1.4290323e-38
2.2353258 -3.8795564 -5.364418e-06 1.4290323e-38
2.2427907 -3.8795564 -5.364418e-06 1.4290323e-38
2.253988 -3.8795564 -5.364418e-06 1.4290323e-38
2.2651854 -3.8795564 -5.364418e-06 1.4290323e-38
2.27265 -3.8795564 -5.364418e-06 1.4290323e-38
2.2838473 -3.8795564 -5.364418e-06 1.4290323e-38
2.2950447 -3.8795564 -5.364418e-06 1.4290323e-38
2.306242 -3.8795564 -5.364418e-06 1.4290323e-38
2.3174391 -3.8795564 -5.364418e-06 1.4290323e-38
2.324904 -3.8795564 -5.364418e-06 1.4290323e-38
2.3361013 -3.8795564 -5.364418e-06 1.4290323e-38
2.3472981 -3.8795559 -5.2452087e-06 1.4290323e-38
2.354763 -3.8795559 -5.2452087e-06 1.4290323e-38
2.3659604 -3.8795559 -5.2452087e-06 1.4290323e-38
2.3771577 -3.8795559 -5.2452087e-06 1.4290323e-38
2.3846226 -3.8795559 -5.2452087e-06 1.4290323e-38
2.3958197 -3.8795559 -5.2452087e-06 1.4290323e-38
2.407017 -3.8795559 -5.2452087e-06 1.4290323e-38
-2.3534145 -3.8605733 -7.5101852e-06 1.4290323e-38
-2.3459797 -3.8605733 -7.5101852e-06 1.4290323e-38
-2.3348274 -3.8605733 -7.5101852e-06 1.4290323e-38
-2.3236754 -3.8605733 -7.5101852e-06 1.4290323e-38
-2.3162405 -3.8605733 -7.5101852e-06 1.4290323e-38
-2.3050883 -3.8605733 -7.5101852e-06 1.4290323e-38
-2.2939358 -3.8605728 -7.2717667e-06 1.4290323e-38
-2.2865012 -3.8605728 -7.2717667e-06 1.4290323e-38
-2.275346 -3.860568 -5.2452087e-06 1.4290323e-38
-2.2641909 -3.8605633 -3.2186508e-06 1.4290323e-38
-2.2567561 -3.8605633 -3.2186508e-06 1.4290323e-38
-2.245604 -3.8605633 -3.2186508e-06 1.4290323e-38
-2.2344518 -3.8605633 -3.2186508e-06 1.4290323e-38
-2.2270172 -3.8605633 -3.2186508e-06 1.4290323e-38
-2.2158649 -3.8605633 -3.2186508e-06 1.4290323e-38
-2.2047129 -3.8605633 -3.2186508e-06 1.4290323e-38
-2.197278 -3.8605633 -3.2186508e-06 1.4290323e-38
-2.1861258 -3.8605633 -3.2186508e-06 1.4290323e-38
-2.1749737 -3.8605633 -3.2186508e-06 1.4290323e-38
-2.1638217 -3.8605633 -3.2186508e-06 1.4290323e-38
-2.1526694 -3.8605633 -3.2186508e-06 1.4290323e-38
-2.1452346 -3.8605633 -3.2186508e-06 1.4290323e-38
-2.1340823 -3.8605628 -2.9802322e-06 1.4290323e-38
-2.12293 -3.8605628 -2.9802322e-06 1.4290323e-38
-2.1154952 -3.8605628 -2.9802322e-06 1.4290323e-38
-2.1043432 -3.8605628 -2.9802322e-06 1.4290323e-38
-2.0931909 -3.8605628 -2.9802322e-06 1.4290323e-38
-2.0857589 -3.8605676 -5.1259995e-06 1.4290323e-38
-2.0746069 -3.8605676 -5.1259995e-06 1.4290323e-38
-2.0634546 -3.8605676 -5.1259995e-06 1.4290323e-38
-2.0560198 -3.8605676 -5.1259995e-06 1.4290323e-38
-2.0448675 -3.8605676 -5.1259995e-06 1.4290323e-38
-2.0337155 -3.8605676 -5.1259995e-06 1.4290323e-38
-2.0262806 -3.8605676 -5.1259995e-06 1.4290323e-38
-2.0151286 -3.8605676 -5.1259995e-06 1.4290323e-38
-2.0039763 -3.8605676 -5.1259995e-06 1.4290323e-38
-1.9965416 -3.8605676 -5.1259995e-06 1.4290323e-38
-1.9853894 -3.8605673 -4.8875809e-06 1.4290323e-38
-1.9742372 -3.8605673 -4.8875809e-06 1.4290323e-38
-1.9668024 -3.8605673 -4.8875809e-06 1.4290323e-38
-1.9556503 -3.8605673 -4.8875809e-06 1.4290323e-38
-1.9444981 -3.8605673 -4.8875809e-06 1.4290323e-38
-1.9370633 -3.8605673 -4.8875809e-06 1.4290323e-38
-1.9259112 -3.8605673 -4.8875809e-06 1.4290323e-38
-1.9147589 -3.8605673 -4.8875809e-06 1.4290323e-38
-1.9073242 -3.8605673 -4.8875809e-06 1.4290323e-38
-1.896172 -3.8605673 -4.8875809e-06 1.4290323e-38
-1.8850199 -3.8605673 -4.8875809e-06 1.4290323e-38
-1.8738678 -3.8605673 -4.8875809e-06 1.4290323e-38
-1.8627156 -3.8605673 -4.8875809e-06 1.4290323e-38
-1.8552808 -3.8605673 -4.8875809e-06 1.4290323e-38
-1.8441285 -3.8605671 -4.7683716e-06 1.4290323e-38
-1.8329762 -3.8605666 -4.6491623e-06 1.4290323e-38
-1.8255415 -3.8605666 -4.6491623e-06 1.4290323e-38
-1.8143892 -3.8605666 -4.6491623e-06 1.4290323e-38
-1.8032371 -3.8605666 -4.6491623e-06 1.4290323e-38
-1.7958024 -3.8605666 -4.6491623e-06 1.4290323e-38
-1.7846502 -3.8605666 -4.6491623e-06 1.4290323e-38
-1.7734981 -3.8605666 -4.6491623e-06 1.1060934e-38
1.7357162 -3.8605685 -5.4836273e-06 1.262971e-38
1.7431509 -3.8605685 -5.4836273e-06 1.4290323e-38
1.7543032 -3.8605685 -5.4836273e-06 1.4290323e-38
1.7654554 -3.8605685 -5.4836273e-06 1.4290323e-38
1.7728901 -3.8605685 -5.4836273e-06 1.4290323e-38
1.7840424 -3.8605685 -5.4836273e-06 1.4290323e-38
1.7951943 -3.860568 -5.2452087e-06 1.4290323e-38
1.802629 -3.860568 -5.2452087e-06 1.4290323e-38
1.8137813 -3.860568 -5.2452087e-06 1.4290323e-38
1.8249333 -3.860568 -5.2452087e-06 1.4290323e-38
1.8360856 -3.860568 -5.2452087e-06 1.4290323e-38
1.8472377 -3.860568 -5.2452087e-06 1.4290323e-38
1.8546724 -3.860568 -5.2452087e-06 1.4290323e-38
1.8658223 -3.8605633 -3.2186508e-06 1.4290323e-38
1.8769745 -3.8605633 -3.2186508e-06 1.4290323e-38
1.8844092 -3.8605633 -3.2186508e-06 1.4290323e-38
1.8955613 -3.8605633 -3.2186508e-06 1.4290323e-38
1.9067135 -3.8605633 -3.2186508e-06 1.4290323e-38
1.9141482 -3.8605633 -3.2186508e-06 1.4290323e-38
1.9253004 -3.8605633 -3.2186508e-06 1.4290323e-38
1.9364525 -3.8605633 -3.2186508e-06 1.4290323e-38
1.9438871 -3.8605628 -2.9802322e-06 1.4290323e-38
1.9550393 -3.8605628 -2.9802322e-06 1.4290323e-38
1.9661914 -3.8605628 -2.9802322e-06 1.4290323e-38
1.9736261 -3.8605628 -2.9802322e-06 1.4290323e-38
1.9847784 -3.8605628 -2.9802322e-06 1.4290323e-38
1.9959304 -3.8605628 -2.9802322e-06 1.4290323e-38
2.0033653 -3.8605628 -2.9802322e-06 1.4290323e-38
2.0145173 -3.8605628 -2.9802322e-06 1.4290323e-38
2.0256696 -3.8605628 -2.9802322e-06 1.4290323e-38
2.0331044 -3.8605628 -2.9802322e-06 1.4290323e-38
2.0442567 -3.8605628 -2.9802322e-06 1.4290323e-38
2.0554087 -3.8605628 -2.9802322e-06 1.4290323e-38
2.0628436 -3.8605628 -2.9802322e-06 1.4290323e-38
2.0739956 -3.8605628 -2.9802322e-06 1.4290323e-38
2.0851479 -3.8605628 -2.9802322e-06 1.4290323e-38
2.0925822 -3.8605621 -2.7418137e-06 1.4290323e-38
2.1037345 -3.8605621 -2.7418137e-06 1.4290323e-38
2.1148865 -3.8605621 -2.7418137e-06 1.4290323e-38
2.1260388 -3.8605621 -2.7418137e-06 1.4290323e-38
2.1371908 -3.8605621 -2.7418137e-06 1.4290323e-38
2.1446257 -3.8605621 -2.7418137e-06 1.4290323e-38
2.1557779 -3.8605621 -2.7418137e-06 1.4290323e-38
2.16693 -3.8605621 -2.7418137e-06 1.4290323e-38
2.1743648 -3.8605621 -2.7418137e-06 1.4290323e-38
2.1855168 -3.8605621 -2.7418137e-06 1.4290323e-38
2.1966691 -3.8605621 -2.7418137e-06 1.4290323e-38
2.2041037 -3.8605621 -2.7418137e-06 1.4290323e-38
2.215256 -3.8605621 -2.7418137e-06 1.4290323e-38
2.226408 -3.8605621 -2.7418137e-06 1.4290323e-38
2.2338428 -3.8605621 -2.7418137e-06 1.4290323e-38
2.2449946 -3.8605616 -2.6226044e-06 1.4290323e-38
2.2561486 -3.8605645 -3.8146973e-06 1.4290323e-38
2.2635832 -3.8605645 -3.8146973e-06 1.4290323e-38
2.2747355 -3.8605645 -3.8146973e-06 1.4290323e-38
2.2858875 -3.8605645 -3.8146973e-06 1.4290323e-38
2.2933223 -3.8605645 -3.8146973e-06 1.4290323e-38
2.3044744 -3.8605645 -3.8146973e-06 1.4290323e-38
2.3156264 -3.860564 -3.5762787e-06 1.4290323e-38
2.3230612 -3.860564 -3.5762787e-06 1.4290323e-38
2.3342133 -3.860564 -3.5762787e-06 1.4290323e-38
2.3453655 -3.860564 -3.5762787e-06 1.4290323e-38
2.3528001 -3.860564 -3.5762787e-06 1.4290323e-38
2.3639524 -3.860564 -3.5762787e-06 1.4290323e-38
2.3751044 -3.860564 -3.5762787e-06 1.4290323e-38
2.3862567 -3.860564 -3.5762787e-06 1.4290323e-38
2.3974087 -3.860564 -3.5762787e-06 1.4290323e-38
-2.343883 -3.841733 -5.6028366e-06 1.4290323e-38
-2.336478 -3.841733 -5.6028366e-06 1.4290323e-38
-2.3253706 -3.841733 -5.6028366e-06 1.4290323e-38
-2.3142631 -3.841733 -5.6028366e-06 1.4290323e-38
-2.3068581 -3.841733 -5.6028366e-06 1.4290323e-38
-2.2957506 -3.841733 -5.6028366e-06 1.4290323e-38
-2.2846434 -3.841733 -5.6028366e-06 1.4290323e-38
-2.2772384 -3.841733 -5.6028366e-06 1.4290323e-38
-2.2661309 -3.841733 -5.6028366e-06 1.4290323e-38
-2.2550235 -3.841733 -5.6028366e-06 1.4290323e-38
-2.243916 -3.841733 -5.6028366e-06 1.4290323e-38
-2.2328086 -3.841733 -5.6028366e-06 1.4290323e-38
-2.2254038 -3.841733 -5.6028366e-06 1.4290323e-38
-2.2142944 -3.8417301 -4.3511391e-06 1.4290323e-38
-2.2031858 -3.8417277 -3.3378601e-06 1.4290323e-38
-2.1957808 -3.8417277 -3.3378601e-06 1.4290323e-38
-2.1846733 -3.8417277 -3.3378601e-06 1.4290323e-38
-2.1735659 -3.8417277 -3.3378601e-06 1.4290323e-38
-2.1661611 -3.8417277 -3.3378601e-06 1.4290323e-38
-2.1550536 -3.8417277 -3.3378601e-06 1.4290323e-38
-2.1439462 -3.8417277 -3.3378601e-06 1.4290323e-38
-2.1365411 -3.8417277 -3.3378601e-06 1.4290323e-38
-2.1254339 -3.8417277 -3.3378601e-06 1.4290323e-38
-2.1143265 -3.8417277 -3.3378601e-06 1.4290323e-38
-2.1069214 -3.8417277 -3.3378601e-06 1.4290323e-38
-2.095814 -3.8417277 -3.3378601e-06 1.4290323e-38
-2.0847094 -3.8417325 -5.364418e-06 1.4290323e-38
-2.0773044 -3.8417325 -5.364418e-06 1.4290323e-38
-2.0661967 -3.8417323 -5.2452087e-06 1.4290323e-38
-2.0550892 -3.8417323 -5.2452087e-06 1.4290323e-38
-2.0439811 -3.8417311 -4.7087669e-06 1.4290323e-38
-2.0328732 -3.8417299 -4.1723251e-06 1.4290323e-38
-2.0254683 -3.8417299 -4.1723251e-06 1.4290323e-38
-2.0143609 -3.8417299 -4.1723251e-06 1.4290323e-38
-2.0032535 -3.8417299 -4.1723251e-06 1.4290323e-38
-1.9958485 -3.8417299 -4.1723251e-06 1.4290323e-38
-1.984741 -3.8417294 -4.0531158e-06 1.4290323e-38
-1.9736335 -3.8417294 -4.0531158e-06 1.4290323e-38
-1.9662285 -3.8417294 -4.0531158e-06 1.4290323e-38
-1.955121 -3.8417294 -4.0531158e-06 1.4290323e-38
-1.9440137 -3.8417294 -4.0531158e-06 1.4290323e-38
-1.9366088 -3.8417294 -4.0531158e-06 1.4290323e-38
-1.9255013 -3.8417294 -4.0531158e-06 1.4290323e-38
-1.9143939 -3.8417294 -4.0531158e-06 1.4290323e-38
-1.906989 -3.8417294 -4.0531158e-06 1.4290323e-38
-1.8958815 -3.8417294 -4.0531158e-06 1.4290323e-38
-1.8847741 -3.8417294 -4.0531158e-06 1.4290323e-38
-1.8773692 -3.8417294 -4.0531158e-06 1.4290323e-38
-1.8662623 -3.8417306 -4.529953e-06 1.4290323e-38
-1.8551553 -3.8417318 -5.0067902e-06 1.4290323e-38
-1.844048 -3.8417318 -5.0067902e-06 1.4290323e-38
