# .PCD v0.7 - Point Cloud Data file format
VERSION 0.7
FIELDS x y z rgb
SIZE 4 4 4 4
TYPE F F F F
COUNT 1 1 1 1
WIDTH 562
HEIGHT 1
VIEWPOINT 0 0 0 1 0 0 0
POINTS 562
DATA ascii
0.3596786 -1.613794 0.88449866 7.0014406e-39
0.36099634 -1.6040748 0.88565427 6.9092436e-39
0.36412182 -1.5950012 0.88483906 6.8174095e-39
0.46357837 -1.5924969 0.88602829 1.336149e-38
0.36838335 -1.5868891 0.88632327 6.8174095e-39
0.37181103 -1.5822158 0.88499463 6.8170494e-39
0.45884919 -1.5844806 0.88475662 1.1791995e-38
0.37676606 -1.5767709 0.8855539 6.7248538e-39
0.38241386 -1.5721163 0.88506156 6.7248552e-39
0.45215711 -1.5769565 0.88565922 1.0778925e-38
0.38724539 -1.5690486 0.88474357 6.7248552e-39
0.39534318 -1.56532 0.88469625 6.6326595e-39
0.40536389 -1.5625732 0.88518745 7.4642293e-39
0.41425768 -1.5618089 0.88555884 9.0340871e-39
0.42416254 -1.5627494 0.88543856 8.2947102e-39
0.43474323 -1.5658355 0.88472772 8.2914522e-39
0.44161165 -1.5690826 0.88540232 9.2126854e-39
-0.065507472 -1.5220004 0.88513249 1.1779175e-40
0.09792617 -1.5289569 0.88498569 8.6689368e-40
-0.062156398 -1.5138861 0.88588542 1.1779175e-40
-0.057385389 -1.5054632 0.88518119 1.1779175e-40
0.086609989 -1.5030614 0.8847478 8.6473007e-40
-0.048065361 -1.4923729 0.8852523 1.1779175e-40
0.081978738 -1.4962612 0.88491136 8.6364967e-40
-0.04198651 -1.4855928 0.88544291 1.1779175e-40
-0.037475739 -1.4813505 0.88598377 1.1779175e-40
0.068165794 -1.4827143 0.88593787 9.5296143e-40
0.073790617 -1.4875644 0.88513482 9.536831e-40
-0.033057038 -1.4781994 0.8843444 1.1779175e-40
-0.025685603 -1.4737033 0.88503534 1.1779175e-40
-0.019834407 -1.4706293 0.88499933 1.1779175e-40
0.049412865 -1.4708428 0.88488889 9.5115936e-40
0.055244006 -1.4740527 0.88485509 9.5151809e-40
0.06258253 -1.4786901 0.88409179 9.5223976e-40
-0.013723982 -1.4682679 0.88557208 1.1779175e-40
-0.0053424062 -1.4657525 0.88428301 1.1779175e-40
0.004756527 -1.4636561 0.88537234 1.1779175e-40
0.014817302 -1.4633498 0.88553154 1.1779175e-40
0.02487612 -1.4643308 0.88502175 1.1779175e-40
0.034954268 -1.4660058 0.88415122 6.7132706e-40
0.043320693 -1.4683416 0.88553399 8.5716026e-40
0.35976356 -1.6201576 0.89524186 8.4790973e-39
0.36015514 -1.6242195 0.89850473 8.2939815e-39
0.35948774 -1.6166387 0.89173913 7.9252018e-39
0.36091337 -1.6046076 0.89563197 8.0181233e-39
0.36420199 -1.5949229 0.89450353 7.0943579e-39
0.36823744 -1.5870483 0.89437675 6.7252153e-39
0.37155938 -1.5825214 0.8958385 6.7252153e-39
0.45693111 -1.5821328 0.89602047 1.1239902e-38
0.46175563 -1.5890682 0.89443666 1.2068939e-38
0.37669837 -1.5769087 0.89512867 6.7252125e-39
0.38334814 -1.5713903 0.89439249 6.7252153e-39
0.44730318 -1.5727839 0.89540797 9.9498861e-39
0.45297813 -1.5774771 0.89485794 1.0779285e-38
0.38792336 -1.5686884 0.89651865 6.7252153e-39
0.39478624 -1.5655093 0.89415324 6.540824e-39
0.40485516 -1.5626758 0.89553988 7.3716735e-39
0.41510585 -1.5618832 0.8952812 9.0340871e-39
0.42552105 -1.5629647 0.89506692 8.0174002e-39
0.43527624 -1.5659696 0.89474487 8.2914522e-39
0.44197831 -1.5692793 0.8953988 9.2130441e-39
-0.065170266 -1.5205783 0.89574385 1.1779175e-40
0.097677737 -1.5283862 0.89520401 8.6689368e-40
-0.061870467 -1.5131451 0.89612752 1.1779175e-40
0.092743568 -1.5147815 0.89367825 8.6581187e-40
-0.057127222 -1.5049466 0.89528537 1.1779175e-40
0.086622536 -1.5032623 0.89542234 8.6473147e-40
-0.052480143 -1.4979893 0.89385772 1.1779175e-40
-0.04784755 -1.4920751 0.89519811 1.1779175e-40
0.078767061 -1.4925026 0.89498025 9.547635e-40
0.081799738 -1.4961406 0.89478499 8.6364967e-40
-0.041788217 -1.4853147 0.89535236 1.1779175e-40
-0.0372984 -1.4812431 0.89578789 1.1779175e-40
0.068337806 -1.4829406 0.89492899 9.5296283e-40
0.074267045 -1.4880968 0.89557266 9.5404323e-40
-0.032891892 -1.4780704 0.89415717 1.1779175e-40
-0.025536278 -1.4736166 0.89534461 1.1779175e-40
-0.019712094 -1.4706134 0.89472193 1.1779175e-40
0.049334269 -1.4709072 0.89457184 9.5115936e-40
0.055143241 -1.4741073 0.89509499 9.5151809e-40
0.062664188 -1.4788626 0.89467961 9.5224116e-40
-0.013903631 -1.4683874 0.89585835 1.1779175e-40
-0.0055455766 -1.4658408 0.89458162 1.1779175e-40
0.0048069209 -1.4636459 0.89506292 1.1779175e-40
0.014838136 -1.4633726 0.89520329 1.1779175e-40
0.024867833 -1.4643794 0.89468688 1.1779175e-40
0.035201613 -1.4661257 0.89443558 6.7132706e-40
0.043544598 -1.4685037 0.89579892 8.5716166e-40
0.35994774 -1.6111054 0.90959442 8.8493343e-39
0.36004871 -1.6100919 0.90667289 8.8493315e-39
0.36119157 -1.6041918 0.90328944 8.6642186e-39
0.36473852 -1.5934381 0.90517044 8.66422e-39
0.46474722 -1.5946906 0.90531176 1.8252203e-38
0.3684217 -1.5865363 0.90405148 8.3872702e-39
0.37178236 -1.582252 0.90537816 8.3876303e-39
0.4581385 -1.5836115 0.90541667 1.410231e-38
0.46039605 -1.5865076 0.90070277 1.3546966e-38
0.37660217 -1.5769174 0.90471143 7.7408162e-39
0.38246247 -1.5720185 0.90414578 7.2791135e-39
0.44554672 -1.5714972 0.90505922 1.0688901e-38
0.45228216 -1.5770483 0.90596616 1.2719014e-38
0.38774231 -1.5687848 0.90566659 7.2791107e-39
0.39449251 -1.5655746 0.90451229 6.7252167e-39
0.40471649 -1.5627452 0.9051829 7.3720322e-39
0.41502306 -1.5618141 0.90562278 9.0344473e-39
0.42430389 -1.562736 0.90518719 8.2947102e-39
0.43362504 -1.5653354 0.90437591 8.1070623e-39
0.44056726 -1.5685216 0.90578979 9.6751083e-39
-0.068819106 -1.5418949 0.90846181 4.0663215e-39
0.097432613 -1.5278524 0.90533972 8.6689368e-40
-0.063217565 -1.5158992 0.90623301 1.1779175e-40
0.092527032 -1.5145246 0.90363783 8.6581187e-40
-0.056869656 -1.5044132 0.90533394 1.1779175e-40
0.086191155 -1.5027528 0.9061501 8.6437134e-40
-0.052242842 -1.4975635 0.90383643 1.1779175e-40
-0.048401162 -1.4927139 0.9046188 1.1779175e-40
0.078573786 -1.4924604 0.90636134 9.547635e-40
0.081621893 -1.4960228 0.90459877 8.6364967e-40
-0.042714782 -1.4862279 0.90541703 1.1779175e-40
-0.03712048 -1.4810967 0.90555352 1.1779175e-40
0.06820257 -1.4829117 0.90464735 9.5296143e-40
0.074114017 -1.4880505 0.9053157 9.5404323e-40
-0.032922424 -1.4780595 0.90477145 1.1779175e-40
-0.025395297 -1.4735271 0.90505534 1.1779175e-40
-0.019590594 -1.4706007 0.90438604 1.1779175e-40
0.049255978 -1.4709638 0.90420318 9.5115796e-40
0.054753404 -1.4739952 0.90524805 9.5115936e-40
0.062327418 -1.4787107 0.90513641 9.5224116e-40
-0.013799069 -1.4683753 0.90550709 1.1779175e-40
-0.0051735681 -1.4657426 0.90469933 1.1779175e-40
0.0048569441 -1.4636445 0.90469289 1.1779175e-40
0.014858812 -1.4634037 0.90481472 1.1779175e-40
0.024859579 -1.4644222 0.90429956 1.1779175e-40
0.034872878 -1.4661205 0.90504158 6.7132566e-40
0.043482952 -1.4685655 0.90541142 8.5716166e-40
0.35974583 -1.61313 0.91543216 6.083485e-39
0.36119539 -1.603424 0.91476953 8.7567758e-39
0.36420918 -1.5947808 0.91534978 8.6645787e-39
0.46293032 -1.5912776 0.91360033 1.6315731e-38
0.36836338 -1.5868912 0.91561031 8.7567744e-39
0.37205705 -1.581919 0.91422355 8.7564156e-39
0.45778504 -1.5831786 0.91564447 1.4379263e-38
0.46157533 -1.5887295 0.91977698 1.5024631e-38
0.37675956 -1.5767765 0.91573822 8.6642186e-39
0.38210991 -1.5723535 0.91445965 8.7571359e-39
0.4476288 -1.5730517 0.91565561 1.2443515e-38
0.45291364 -1.5775453 0.9140771 1.3180717e-38
0.38714543 -1.5691028 0.91482991 8.6649403e-39
0.3951683 -1.5653809 0.91473699 8.4794672e-39
0.40509346 -1.562616 0.91519642 8.4798273e-39
0.41497299 -1.5618725 0.91584361 9.1262828e-39
0.42567867 -1.5630428 0.91466677 8.9411642e-39
0.43601307 -1.5662884 0.91459042 1.0323377e-38
0.44270349 -1.5696682 0.91523045 1.1614117e-38
-0.068374634 -1.5367236 0.91584265 4.0663201e-39
0.097196497 -1.5274677 0.91534042 8.6689368e-40
-0.062927686 -1.5151262 0.91636992 1.1779175e-40
0.092312962 -1.5142936 0.91352481 8.6581328e-40
-0.056612212 -1.5038534 0.91533202 1.1779175e-40
0.086000077 -1.5026127 0.91593361 8.6437134e-40
-0.052006226 -1.4971243 0.91375971 1.1779175e-40
-0.048908889 -1.4931527 0.91569787 1.1779175e-40
0.07841026 -1.4924517 0.91604024 9.5440477e-40
0.08144512 -1.495906 0.91435432 8.6364967e-40
-0.044388872 -1.4878589 0.9150731 1.1779175e-40
-0.038433395 -1.4821571 0.91466665 1.1779175e-40
0.068067819 -1.4828743 0.91431355 9.5296143e-40
0.073961698 -1.4879991 0.91500455 9.5404323e-40
-0.032536667 -1.4777931 0.91521806 1.1779175e-40
-0.024958393 -1.4732908 0.91520655 1.1779175e-40
-0.019469483 -1.4705772 0.9139995 1.1779175e-40
0.049177866 -1.4710063 0.91378635 9.5079782e-40
0.054944195 -1.4742143 0.91538841 9.5115936e-40
0.062209979 -1.4786807 0.9147799 9.5224116e-40
-0.013694457 -1.4683378 0.9151125 1.1779175e-40
-0.0050901361 -1.4657257 0.91481906 1.1779175e-40
0.0049065663 -1.4636551 0.91426086 1.1779175e-40
0.014879268 -1.4634506 0.91436315 1.1779175e-40
0.025179386 -1.4645127 0.91432202 1.1779175e-40
0.034547009 -1.4661056 0.91558486 4.869344e-40
0.043421626 -1.4686248 0.91496986 8.5716166e-40
0.35984427 -1.6209818 0.92876548 4.5150775e-39
0.35952345 -1.6165347 0.92401171 4.1473852e-39
0.36056018 -1.6056566 0.92550212 8.480549e-39
0.46707731 -1.601681 0.92393887 1.9728056e-38
0.363583 -1.5963422 0.92466831 8.7567758e-39
0.36801311 -1.5874578 0.92534441 8.7567744e-39
0.37159714 -1.582477 0.92593735 8.6642186e-39
0.45743552 -1.5827513 0.92581564 1.419487e-38
0.4606753 -1.5870346 0.9238748 1.5024993e-38
0.37669244 -1.5769135 0.92515236 8.7571345e-39
0.38328359 -1.5714334 0.92434722 8.6645787e-39
0.44628614 -1.5719979 0.92474997 1.2166928e-38
0.45211545 -1.5767455 0.92522782 1.3273634e-38
0.38823274 -1.5685245 0.92633611 8.7567744e-39
0.39483154 -1.5654614 0.92438406 8.7567744e-39
0.40506819 -1.5626576 0.92537218 8.8493315e-39
0.41522771 -1.5618583 0.92511141 9.1262828e-39
0.42504233 -1.5628644 0.92497814 9.0333627e-39
0.43468219 -1.5657315 0.92475921 1.0231543e-38
0.44129768 -1.5689133 0.92549866 1.1429725e-38
-0.067972094 -1.5329301 0.92415738 3.0561395e-39
0.096964858 -1.5271448 0.92525083 8.6689368e-40
-0.062643312 -1.514419 0.92640972 1.1779175e-40
0.092068836 -1.5141079 0.92494297 8.6581187e-40
-0.056356896 -1.5033051 0.9252612 1.1779175e-40
0.08612746 -1.5029626 0.92510462 8.6473147e-40
-0.051771093 -1.4966873 0.92362005 1.1779175e-40
-0.048680454 -1.4926529 0.92556208 1.1779175e-40
0.078246467 -1.4924117 0.92567831 9.5440477e-40
0.082007051 -1.4968297 0.925156 8.6364967e-40
-0.04418366 -1.4875547 0.92482692 1.1779175e-40
-0.03825292 -1.482008 0.92432624 1.1779175e-40
0.068130895 -1.4829924 0.92475814 9.5296143e-40
0.073810175 -1.4879459 0.92463797 9.5404323e-40
-0.032374598 -1.4776664 0.92484665 1.1779175e-40
-0.025101284 -1.4733357 0.92536926 1.1779175e-40
-0.019325253 -1.4704181 0.92520738 1.1779175e-40
0.049087949 -1.4710891 0.92487949 9.5043769e-40
0.054849617 -1.4742343 0.92493081 9.5115936e-40
0.061876912 -1.478512 0.92511559 9.5188103e-40
-0.013589495 -1.4682648 0.92467946 1.1779175e-40
-0.0047183787 -1.4656241 0.92534113 1.1779175e-40
0.0046304832 -1.463729 0.92422867 1.1779175e-40
0.014899454 -1.4635226 0.92384434 1.1779175e-40
0.02455697 -1.4644794 0.92526978 1.1779175e-40
0.034794029 -1.4662087 0.92568755 4.869358e-40
0.043360792 -1.46869 0.92447102 8.5752039e-40
0.36023372 -1.6250144 0.93203521 5.1600728e-39
0.36108109 -1.6047081 0.93426555 7.4645894e-39
0.36482611 -1.5932602 0.93529671 8.2025174e-39
0.46364179 -1.5926121 0.93463558 1.6039143e-38
0.36847973 -1.5864285 0.93408567 8.7571359e-39
0.37200245 -1.5819864 0.93606871 8.7567758e-39
0.45778808 -1.5831832 0.93388569 1.4287426e-38
0.37659708 -1.5769217 0.93457276 8.6645787e-39
0.38214594 -1.5722752 0.93478394 8.6645801e-39
0.44574991 -1.5716639 0.93346483 1.2351681e-38
0.45204633 -1.5768402 0.93573827 1.3458028e-38
0.38763872 -1.5688409 0.93539381 8.6645801e-39
0.39509025 -1.5653799 0.93499041 8.6645801e-39
0.40487191 -1.5627021 0.93459564 8.8493329e-39
0.41465709 -1.5618045 0.93529946 9.1266429e-39
0.42443848 -1.5627964 0.93517745 9.1259184e-39
0.43498778 -1.5659026 0.93508208 1.0416296e-38
0.441659 -1.5691071 0.93527412 1.124497e-38
-0.067708932 -1.5307086 0.93006575 2.0463175e-39
-0.067455806 -1.5286393 0.93587226 2.0459588e-39
0.096727781 -1.526688 0.9351632 8.6653354e-40
-0.062364515 -1.5137811 0.93635219 1.1779175e-40
0.091831565 -1.5140358 0.93623352 8.6581328e-40
-0.056102455 -1.5027466 0.93513256 1.1779175e-40
0.087146722 -1.5048412 0.93574119 8.6545174e-40
-0.051497452 -1.4961567 0.93505448 1.1779175e-40
-0.048457209 -1.4922327 0.93532676 1.1779175e-40
0.078078941 -1.492252 0.93531758 9.5440477e-40
0.082598634 -1.4978296 0.93426591 8.640098e-40
-0.043980837 -1.4872774 0.93450874 1.1779175e-40
-0.038269002 -1.4820486 0.93474203 1.1779175e-40
0.06777703 -1.4827684 0.93507749 9.5296143e-40
0.073854387 -1.4880155 0.93506324 9.5404183e-40
-0.031986076 -1.4771974 0.93525898 1.1779175e-40
-0.024959819 -1.4731579 0.9349463 1.1779175e-40
-0.019179821 -1.4701856 0.93637711 1.1779175e-40
0.048998248 -1.4711524 0.93591183 9.5043769e-40
0.055037402 -1.4744143 0.93497276 9.5115936e-40
0.061958846 -1.4786276 0.93547708 9.5188103e-40
-0.013485006 -1.4681873 0.93419278 1.1779175e-40
-0.004921319 -1.4656868 0.93540204 1.1779175e-40
0.0052979947 -1.4637086 0.93510085 1.1779175e-40
0.014922839 -1.4636098 0.93483424 1.1779175e-40
0.024832442 -1.4645748 0.93593973 1.1779175e-40
0.034757558 -1.4662497 0.93512988 4.8657567e-40
0.043581236 -1.4688536 0.9345001 8.5752039e-40
0.35981154 -1.6124763 0.94581825 5.8987295e-39
0.36001158 -1.6104686 0.94005066 7.0047071e-39
0.36129826 -1.6030889 0.94491714 7.0021609e-39
0.36429486 -1.5945635 0.94533604 6.8174081e-39
0.36809888 -1.5872767 0.94556367 7.1869151e-39
0.37151527 -1.5825781 0.94500571 8.0181233e-39
0.45674065 -1.5819012 0.94595784 1.3086711e-38
0.46139809 -1.588396 0.94474518 1.2161498e-38
0.37675312 -1.5767823 0.94541073 8.7567758e-39
0.38274565 -1.5718912 0.94477761 8.6645787e-39
0.44726983 -1.5727557 0.9450931 1.2535712e-38
0.4528574 -1.5773584 0.9446888 1.3457665e-38
0.38745999 -1.5689361 0.94434142 8.66422e-39
0.39484513 -1.5654837 0.9446885 8.7567758e-39
0.40482759 -1.562658 0.94469714 8.9415286e-39
0.41505706 -1.5618945 0.9450379 9.0344473e-39
0.42577991 -1.563019 0.94453579 9.1255583e-39
0.4352634 -1.5659665 0.94539142 1.0415934e-38
0.44202027 -1.5693007 0.94499451 1.1614476e-38
-0.067092627 -1.5261364 0.94505709 1.4031173e-39
0.096469678 -1.5257879 0.94521672 8.6617341e-40
-0.062421046 -1.5137724 0.94562376 1.1779175e-40
0.089989513 -1.5106523 0.94896686 8.6473007e-40
0.091948427 -1.5144517 0.94531095 8.6509301e-40
-0.060411818 -1.5098808 0.94932121 1.1779175e-40
-0.056639776 -1.5034914 0.94433606 1.1779175e-40
0.085746117 -1.5031533 0.94544536 8.6509161e-40
-0.052445948 -1.4972636 0.94628161 1.1779175e-40
-0.04823941 -1.4918979 0.94499111 1.1779175e-40
0.077914067 -1.492136 0.94487971 9.547649e-40
0.081512116 -1.496467 0.94411743 8.6401121e-40
-0.043977637 -1.4872724 0.9449051 1.1779175e-40
-0.037870288 -1.4818147 0.9449994 1.1779175e-40
0.067425847 -1.4825374 0.94533193 9.5260129e-40
0.073479213 -1.4876938 0.9453842 9.536831e-40
-0.032028649 -1.4774256 0.94549912 1.1779175e-40
-0.025103137 -1.4732695 0.94495642 1.1779175e-40
-0.019065021 -1.4702998 0.94573921 1.1779175e-40
0.048921674 -1.4711976 0.94531292 9.5079782e-40
0.054650493 -1.4742587 0.94490612 9.5115936e-40
0.061844215 -1.4786234 0.94493294 9.5188103e-40
-0.013629099 -1.468246 0.94472289 1.1779175e-40
-0.0048436844 -1.465669 0.94481468 1.1779175e-40
0.0050685001 -1.4638137 0.94569969 1.1779175e-40
0.014946052 -1.4637047 0.94575149 1.1779175e-40
0.024824411 -1.4646236 0.94531327 1.1779175e-40
0.034721334 -1.4662948 0.94451642 3.9473877e-40
0.043227918 -1.4687459 0.94491225 8.5752039e-40
0.35955 -1.6163927 0.95572358 4.2392179e-39
0.36065158 -1.6052257 0.95553368 7.2794709e-39
0.36367404 -1.5961127 0.95451993 6.9096051e-39
0.46434426 -1.5939298 0.95545697 1.4929176e-38
0.3680774 -1.5873567 0.95502585 6.9096051e-39
0.37163439 -1.5824342 0.9555254 6.9096051e-39
0.45793104 -1.5833588 0.955127 1.1516127e-38
0.46009856 -1.5860121 0.95070726 1.1792353e-38
0.37639022 -1.5772165 0.95518875 7.0943593e-39
0.38295835 -1.571678 0.95463431 8.1106805e-39
0.44576049 -1.5716438 0.95534486 1.1243521e-38
0.45217344 -1.5769422 0.95547098 1.1056594e-38
0.3881256 -1.5685821 0.95571089 8.7567758e-39
0.39482546 -1.5654699 0.95466048 8.7567758e-39
0.40522817 -1.5626465 0.95443106 8.8493315e-39
0.41541335 -1.561825 0.95479244 9.1262828e-39
0.42457524 -1.5627788 0.9543727 9.0337242e-39
0.43395936 -1.5654618 0.95535058 1.0139707e-38
0.44062901 -1.5685536 0.95507497 1.1337889e-38
-0.066721886 -1.5241777 0.95552438 1.1779175e-40
0.096172877 -1.5240898 0.9555645 8.6581328e-40
-0.063385881 -1.5154535 0.95629168 1.1779175e-40
0.089839883 -1.5102048 0.95550871 8.6473147e-40
0.092960514 -1.516421 0.95585346 8.6509161e-40
-0.060233872 -1.5094944 0.95583194 1.1779175e-40
-0.057137471 -1.5042337 0.9550727 1.1779175e-40
0.086033627 -1.5036235 0.95377564 8.6437134e-40
-0.052542046 -1.4973987 0.95505357 1.1779175e-40
-0.048028629 -1.4916819 0.95454198 1.1779175e-40
0.077752195 -1.4920731 0.9543615 9.5512503e-40
0.081906065 -1.4973285 0.95571661 8.640098e-40
-0.043557689 -1.4869593 0.95515662 1.1779175e-40
-0.0374767 -1.4816276 0.95516735 1.1779175e-40
0.067492574 -1.4827057 0.95556098 9.526027e-40
0.073329896 -1.4876252 0.95484829 9.536831e-40
-0.031880606 -1.4775939 0.95481247 1.1779175e-40
-0.024674542 -1.4733565 0.95522964 1.1779175e-40
-0.018954542 -1.470541 0.95498919 1.1779175e-40
0.048845369 -1.4712337 0.95466489 9.5043769e-40
0.054552 -1.4742657 0.95480508 9.5115936e-40
0.061730441 -1.4786268 0.95433122 9.5223976e-40
-0.012972203 -1.4681689 0.9554776 1.1779175e-40
-0.0050443411 -1.4657406 0.95475233 1.1779175e-40
0.0051161838 -1.4638834 0.95500487 1.1779175e-40
0.014965791 -1.4637972 0.95504546 1.1779175e-40
0.024816426 -1.4646721 0.95463389 1.1779175e-40
0.034964733 -1.4663892 0.95444757 4.8657567e-40
0.042878389 -1.4686706 0.95524251 8.5716166e-40
0.35992348 -1.6217914 0.96169794 4.5154363e-39
0.36031032 -1.6257925 0.96497512 5.4370212e-39
0.36100462 -1.6050484 0.96498042 7.0954439e-39
0.36491218 -1.5930855 0.96490926 6.8174081e-39
0.46300077 -1.591406 0.96143931 1.1055875e-38
0.36842352 -1.5865393 0.96513915 6.7252125e-39
0.37203619 -1.5819478 0.96547872 6.7252125e-39
0.45758343 -1.5829334 0.96505612 1.1331373e-38
0.46166632 -1.5888994 0.96738136 1.1884185e-38
0.37707034 -1.5764302 0.96460629 6.6330183e-39
0.38232917 -1.5721257 0.96553272 6.7252125e-39
0.44777089 -1.5731678 0.96600848 9.9495246e-39
0.45279104 -1.5774142 0.96337497 1.0778562e-38
0.38753685 -1.5688955 0.96462148 7.0018008e-39
0.39570162 -1.5651743 0.96573186 7.9255661e-39
0.40507308 -1.562646 0.96378344 8.9411698e-39
0.41486302 -1.561837 0.96477735 9.0344473e-39
0.42495394 -1.5628979 0.96399653 9.0337228e-39
0.43527347 -1.5660183 0.9652189 8.937909e-39
0.44273508 -1.569684 0.96428061 9.3045195e-39
0.099412501 -1.5388216 0.9680959 4.3493992e-39
-0.066383719 -1.5227269 0.9656865 1.1779175e-40
0.095932923 -1.523491 0.96534723 8.6617341e-40
-0.063111752 -1.5148983 0.96601844 1.1779175e-40
0.09272784 -1.5157647 0.96563172 8.6545314e-40
-0.060062215 -1.5092096 0.96227396 1.1779175e-40
-0.058112364 -1.5059732 0.96561778 1.1779175e-40
0.088096142 -1.5070003 0.96484119 8.6473007e-40
-0.052518498 -1.4974864 0.96532315 1.1779175e-40
-0.04782157 -1.491518 0.96401256 1.1779175e-40
0.077568591 -1.4921049 0.96530515 9.5512503e-40
0.082243435 -1.4978689 0.96515006 8.6364967e-40
-0.043142021 -1.4866669 0.96533024 1.1779175e-40
-0.037497919 -1.481722 0.96536595 1.1779175e-40
0.067362078 -1.4826741 0.96493053 9.5260129e-40
0.072961457 -1.4873646 0.96501237 9.5404323e-40
-0.031915683 -1.477636 0.96501887 1.1779175e-40
-0.024243677 -1.4732614 0.96552312 1.1779175e-40
-0.018841296 -1.4706641 0.96424359 1.1779175e-40
0.048768282 -1.4712052 0.96399373 9.5043769e-40
0.054165773 -1.4741501 0.96511459 9.5115936e-40
0.061812367 -1.4787759 0.96449584 9.5188103e-40
-0.013152294 -1.4683604 0.96530682 1.1779175e-40
-0.0044171494 -1.4655925 0.96546149 1.1779175e-40
0.005163474 -1.4639621 0.9642536 1.1779175e-40
0.01498541 -1.4638901 0.96428704 1.1779175e-40
0.025208155 -1.4647766 0.96475703 1.1779175e-40
0.034385324 -1.4663022 0.96513325 3.9473877e-40
0.043098193 -1.4687784 0.96511394 8.5716166e-40
0.35987592 -1.6118336 0.97567123 6.7281216e-39
0.36139983 -1.6027619 0.97454572 7.0017994e-39
0.36437896 -1.5943497 0.9748109 6.8174067e-39
0.46459317 -1.5943954 0.97802401 1.3177462e-38
0.36818019 -1.5871682 0.97619784 6.7252111e-39
0.37155297 -1.5825344 0.97427481 6.7252125e-39
0.45723948 -1.5825129 0.97493118 1.1239179e-38
0.46033716 -1.5863996 0.97329426 1.1700153e-38
0.37685749 -1.5767233 0.97522438 6.7252125e-39
0.38299814 -1.5716958 0.97521144 6.8174067e-39
0.44649467 -1.5721596 0.97448009 9.6729391e-39
0.45278507 -1.577469 0.97544551 1.0594531e-38
0.38735983 -1.56899 0.97342062 6.8174067e-39
0.39458668 -1.5655884 0.97566885 6.8174081e-39
0.40473893 -1.5627074 0.97457004 7.9255676e-39
0.4151285 -1.5618764 0.97376311 9.0340871e-39
0.42553625 -1.5629613 0.97422904 7.9252046e-39
0.4345406 -1.5656962 0.97562248 8.1067022e-39
0.44134888 -1.5689396 0.97424346 9.0282928e-39
0.099216901 -1.5378526 0.97485518 4.3494006e-39
-0.066067137 -1.5216047 0.97563219 1.1779175e-40
0.095703475 -1.5230752 0.97498852 8.6617341e-40
-0.062840059 -1.5143585 0.97567773 1.1779175e-40
0.092510112 -1.5153918 0.97522312 8.6581187e-40
-0.058194641 -1.5062383 0.97457618 1.1779175e-40
0.087888084 -1.5065385 0.97444314 8.6473007e-40
-0.052062254 -1.4969739 0.97557694 1.1779175e-40
-0.047579512 -1.4912851 0.97500831 1.1779175e-40
0.077375636 -1.4918633 0.97630215 9.547635e-40
0.081833333 -1.4973048 0.9754293 8.6328954e-40
-0.043143511 -1.4866925 0.97551894 1.1779175e-40
-0.037323307 -1.4815831 0.97472435 1.1779175e-40
0.067425959 -1.4827789 0.97506791 9.526027e-40
0.073011264 -1.4875137 0.97515059 9.536831e-40
-0.031541485 -1.4774095 0.97506481 1.1779175e-40
-0.024388459 -1.4733691 0.97535205 1.1779175e-40
-0.018706346 -1.4706798 0.97503179 1.1779175e-40
0.048680298 -1.4712458 0.9747749 9.5079922e-40
0.05491925 -1.474709 0.9753617 9.5115936e-40
0.061486732 -1.4786772 0.97449225 9.5188103e-40
-0.013053098 -1.4683893 0.97453785 1.1779175e-40
-0.0045893351 -1.4656748 0.97577316 1.1779175e-40
0.0052179643 -1.464076 0.97496665 1.1779175e-40
0.015008141 -1.4640007 0.97500086 1.1779175e-40
0.024398258 -1.4647179 0.97533166 1.1779175e-40
0.034601688 -1.4663996 0.97544318 4.869344e-40
0.043316711 -1.4689434 0.97489989 8.5752039e-40
0.3595565 -1.6154368 0.98557907 7.4649523e-39
0.36075553 -1.6048671 0.98502082 5.8965434e-39
0.36385193 -1.5956262 0.98465908 6.4493487e-39
0.46281439 -1.591054 0.98584962 1.1332832e-38
0.36823896 -1.5870546 0.98497623 5.5277637e-39
0.37167105 -1.5823921 0.9846161 6.4486298e-39
0.45841789 -1.5839556 0.98396617 9.5814763e-39
0.37654531 -1.5770462 0.98523629 6.2646001e-39
0.38313165 -1.5715283 0.9850257 6.3567971e-39
0.44618043 -1.5719894 0.9846828 8.9364629e-39
0.45260611 -1.5772767 0.98482025 8.8442742e-39
0.38806969 -1.5686122 0.98487818 6.2646001e-39
0.3949689 -1.5653818 0.98532176 5.8043492e-39
0.40504196 -1.5626768 0.98518342 7.7408148e-39
0.41491804 -1.5618237 0.98479062 9.0340871e-39
0.42408481 -1.5627146 0.98564368 8.2025146e-39
0.43491396 -1.565892 0.98510873 7.4620601e-39
0.4419767 -1.5692765 0.98581284 7.5546228e-39
0.098937541 -1.5366455 0.98483324 4.3494006e-39
-0.065775432 -1.5208696 0.98534346 1.1779175e-40
0.095482469 -1.5228029 0.98450953 8.6617481e-40
-0.062570386 -1.513827 0.9852733 1.1779175e-40
0.092302941 -1.5152134 0.98467231 8.6545174e-40
-0.057710145 -1.5055345 0.98488605 1.1779175e-40
0.087446503 -1.5056722 0.98482615 8.6473147e-40
-0.051840115 -1.4967195 0.98498607 1.1779175e-40
-0.047330905 -1.4908848 0.98600626 1.1779175e-40
0.077215694 -1.4917716 0.98561621 9.5440336e-40
0.081658229 -1.4971546 0.98479509 8.6364967e-40
-0.042945463 -1.4863871 0.98491162 1.1779175e-40
-0.037338991 -1.4815521 0.98485726 1.1779175e-40
0.067080684 -1.4825878 0.98505706 9.5260129e-40
0.072865069 -1.4874562 0.98443913 9.5404323e-40
-0.032103829 -1.4777271 0.98414683 1.1779175e-40
-0.025670975 -1.4740459 0.9850226 1.1779175e-40
-0.018571619 -1.4706736 0.98576212 1.1779175e-40
0.047884095 -1.4710747 0.98634619 9.5115796e-40
0.05578576 -1.4753629 0.98484737 9.5151949e-40
0.06278792 -1.4795965 0.98484927 9.5187963e-40
-0.013198987 -1.4685341 0.98477441 1.1779175e-40
-0.004514121 -1.4656841 0.98494309 1.1779175e-40
0.0052720918 -1.4641913 0.98561281 1.1779175e-40
0.015030731 -1.4641111 0.98564869 1.1779175e-40
0.024790084 -1.4648253 0.9853282 1.1779175e-40
0.034566697 -1.466476 0.98458791 4.8729594e-40
0.042408478 -1.4687296 0.98510325 9.4935589e-40
0.36012962 -1.6239109 0.9951483 8.3869016e-39
0.35974514 -1.6199425 0.99187088 8.3872646e-39
0.36100098 -1.6048315 0.99562418 8.1106805e-39
0.36470446 -1.5937327 0.99414635 7.5564235e-39
0.46547323 -1.5963526 0.99811554 1.6317539e-38
0.36836639 -1.5866407 0.99565524 8.0181233e-39
0.371831 -1.5821989 0.99518728 7.9255661e-39
0.45738322 -1.5826894 0.99566984 1.3271827e-38
0.46104977 -1.5877392 0.99361259 1.3085626e-38
0.37692717 -1.5765686 0.99499011 7.8333705e-39
0.38201937 -1.5723802 0.99511987 7.8333719e-39
0.44698977 -1.5725456 0.99505121 1.1427911e-38
0.45222554 -1.5768361 0.99646682 1.2626819e-38
0.38740832 -1.5689647 0.99561703 7.9259291e-39
0.39537445 -1.5652899 0.99487138 7.7411763e-39
0.40499234 -1.5626289 0.99596912 8.3876303e-39
0.41501066 -1.5618691 0.99579656 9.0340871e-39
0.42563158 -1.5629816 0.99582344 8.6638557e-39
0.43525416 -1.5659721 0.99458957 9.3081363e-39
0.44160271 -1.5690755 0.9964757 1.0875824e-38
-0.069674417 -1.5458099 0.99352074 4.0666816e-39
-0.069223829 -1.5398462 0.99914145 3.9744874e-39
0.098709919 -1.5364109 0.99433392 4.3493992e-39
-0.065499663 -1.5203747 0.99489039 1.1779175e-40
0.09528438 -1.522966 0.9937889 8.6653354e-40
-0.062305123 -1.5133458 0.99478811 1.1779175e-40
0.092081815 -1.514719 0.99420136 8.6545174e-40
-0.05766052 -1.5053922 0.99510688 1.1779175e-40
0.087659188 -1.506232 0.9956277 8.6509161e-40
-0.051615607 -1.4963933 0.99437076 1.1779175e-40
-0.04783906 -1.4915133 0.99648154 1.1779175e-40
0.078210317 -1.4931017 0.99610126 9.547663e-40
0.081783131 -1.4972613 0.99368846 8.6329094e-40
-0.042940464 -1.4862702 0.99503946 1.1779175e-40
-0.037237804 -1.4813851 0.99446517 1.1779175e-40
0.06673871 -1.4824144 0.99497402 9.5296143e-40
0.072914533 -1.4876182 0.99445301 9.5404323e-40
-0.033342689 -1.4784691 0.99528283 1.1779175e-40
-0.025520295 -1.4739087 0.99499696 1.1779175e-40
-0.018454051 -1.4705695 0.99494511 1.1779175e-40
0.047115792 -1.4708909 0.99480385 9.5115796e-40
0.055168908 -1.4751785 0.99509186 9.5115936e-40
0.062672675 -1.4795915 0.99402881 9.5187963e-40
-0.012832791 -1.4684165 0.99488163 1.1779175e-40
-0.0051925657 -1.4659172 0.9950642 1.1779175e-40
0.0053181672 -1.4642926 0.9946807 1.1779175e-40
0.015049969 -1.4642062 0.99471897 1.1779175e-40
0.024782272 -1.4648856 0.99441844 1.1779175e-40
0.034780461 -1.4665802 0.99477118 4.8729594e-40
0.041501839 -1.4685246 0.99584502 9.4863562e-40
